ply
format ascii 1.0
element vertex 1390
property float x
property float y
property float z
property uchar red
property uchar green
property uchar blue
end_header
17.8660 -11.2166 1.4963 60 60 60
8.0709 7.3346 2.2470 60 60 60
8.2997 9.5066 0.4069 60 60 60
6.1622 6.3586 -0.1357 60 60 60
18.0956 -9.8660 0.5589 60 60 60
7.7920 5.0208 -0.0667 60 60 60
8.5032 9.5412 0.3832 60 60 60
7.3455 9.3836 1.3103 60 60 60
5.9390 3.9088 -0.0470 60 60 60
9.8349 9.7973 1.1529 60 60 60
12.0285 10.2373 3.4700 60 60 60
8.6822 9.5605 0.0730 60 60 60
6.2849 3.0466 -0.0154 60 60 60
7.3090 9.3557 1.0477 60 60 60
9.0266 9.6618 1.2046 60 60 60
8.7190 7.1044 0.0187 60 60 60
8.7940 5.3246 -0.0700 60 60 60
12.8856 10.1790 1.3200 60 60 60
6.0897 6.8827 0.0002 60 60 60
6.1616 3.3492 -0.0220 60 60 60
11.7449 10.1557 2.4066 60 60 60
5.9698 2.4940 -0.0027 60 60 60
9.3292 9.7491 1.7815 60 60 60
8.2497 8.5265 -0.0531 60 60 60
11.8832 -6.8096 0.1097 60 60 60
6.0234 3.6964 -0.0359 60 60 60
9.0006 9.7437 2.6743 60 60 60
10.6771 9.9610 1.7445 60 60 60
9.8994 5.7653 -0.0575 60 60 60
6.5011 8.1663 -0.0181 60 60 60
12.3450 10.1367 2.0549 60 60 60
6.4612 9.1456 2.8593 60 60 60
9.2454 7.3797 0.4419 60 60 60
7.2489 7.1111 0.0052 60 60 60
11.5041 10.1398 2.7450 60 60 60
6.3454 8.3486 -0.0210 60 60 60
10.2516 7.9324 2.8584 60 60 60
11.6926 -1.4291 0.0695 255 200 100
24.4202 -7.6118 4.7597 255 200 100
7.1788 -2.1201 -0.0236 255 200 100
14.9579 -2.4547 0.1889 255 200 100
15.4430 2.2188 0.1496 255 200 100
8.5728 -1.5928 0.0078 255 200 100
24.9722 -9.8410 3.1145 255 200 100
6.7302 1.2994 0.0150 255 200 100
7.2624 1.1864 0.0202 255 200 100
29.5919 12.1932 3.4485 255 200 100
9.9396 -4.8303 -0.0298 255 200 100
26.3630 -4.3430 3.6538 255 200 100
13.1685 -1.5578 0.1184 255 200 100
11.7502 3.9500 0.0057 255 200 100
9.4299 1.5165 0.0309 255 200 100
21.5493 2.3952 0.8957 255 200 100
7.3014 0.1771 0.0316 255 200 100
7.0009 2.5282 0.0050 255 200 100
15.3245 6.8083 0.0818 255 200 100
25.5243 -3.3399 4.7412 255 200 100
15.8175 -2.7034 1.8487 255 200 100
18.5110 10.8126 0.0978 255 200 100
7.8972 -0.1729 0.0325 255 200 100
6.3582 0.2509 0.0261 255 200 100
29.8180 11.0258 6.3204 255 200 100
13.5210 2.3069 0.0704 255 200 100
24.8825 -5.9677 4.1632 255 200 100
11.7956 0.0165 0.0682 255 200 100
15.4905 3.2772 0.1335 255 200 100
7.2347 1.4869 0.0141 255 200 100
22.2008 5.1633 0.3654 255 200 100
7.2095 -2.0085 -0.0233 255 200 100
6.7376 1.2659 0.0146 255 200 100
25.5008 -7.6488 3.6763 255 200 100
19.6424 -8.9553 0.4680 255 200 100
23.2684 -11.9594 5.5095 255 200 100
10.4569 -1.1498 0.0459 255 200 100
7.2911 0.6254 0.0292 255 200 100
16.0315 -1.2310 1.4911 255 200 100
16.7095 -5.2042 0.3213 255 200 100
21.8272 6.8996 0.3851 255 200 100
10.3390 -2.7355 0.0179 255 200 100
29.0209 16.2500 2.8554 255 200 100
6.4200 2.5565 0.0042 255 200 100
10.3401 -2.6166 0.0226 255 200 100
10.4871 1.5885 0.0399 255 200 100
9.4272 1.6190 0.0288 255 200 100
26.2272 -4.7669 3.0491 255 200 100
11.1429 -4.8084 0.0342 255 200 100
7.4163 3.6817 -0.0374 255 200 100
19.7814 -8.4902 0.4646 255 200 100
23.4231 -11.3843 5.4797 255 200 100
9.3330 -3.2033 -0.0384 255 200 100
21.5705 5.1173 0.9029 255 200 100
8.2529 -3.8046 -0.0686 255 200 100
16.0235 -1.2280 1.1406 255 200 100
29.9988 15.4931 2.8418 255 200 100
15.4517 -0.0713 0.1535 255 200 100
15.8911 -2.0092 1.4939 255 200 100
7.3086 -0.4535 0.0243 255 200 100
15.6440 -3.6517 0.7990 255 200 100
9.4373 1.3160 0.0342 255 200 100
15.8326 -2.5244 0.7948 255 200 100
12.4365 -5.1761 0.1152 255 200 100
6.3598 0.0290 0.0265 255 200 100
29.5912 12.4787 6.3998 255 200 100
6.7151 1.4394 0.0116 255 200 100
21.5247 5.3468 1.3989 255 200 100
16.2533 -0.3678 1.8447 255 200 100
30.8961 12.8317 1.2508 255 200 100
6.7805 -0.8975 0.0122 255 200 100
9.4130 1.7706 0.0273 255 200 100
23.2240 11.4837 0.2627 255 200 100
9.3965 2.5531 0.0012 255 200 100
15.9038 -2.1903 1.8464 255 200 100
10.4886 0.4081 0.0533 255 200 100
25.5014 -7.6465 3.0735 255 200 100
19.3723 -9.7621 0.4752 255 200 100
20.8513 2.6742 0.4620 255 200 100
15.7738 -2.8699 0.7963 255 200 100
7.2866 -1.3588 -0.0028 255 200 100
25.0567 -5.1353 4.7328 255 200 100
13.5321 2.6129 0.0643 255 200 100
24.4961 -7.3355 4.7551 255 200 100
7.9067 0.1909 0.0311 255 200 100
9.4378 -1.5829 0.0177 255 200 100
11.8720 2.9458 0.0189 255 200 100
16.2054 -0.3572 1.1348 255 200 100
8.5990 0.0750 0.0379 255 200 100
15.6846 -3.3873 0.7985 255 200 100
25.2699 -4.3063 4.7335 255 200 100
21.5157 0.5965 0.4135 255 200 100
12.6664 -4.3243 0.1174 255 200 100
10.4944 0.1306 0.0524 255 200 100
11.3935 5.7305 -0.0205 255 200 100
24.7052 -10.3745 2.5198 255 200 100
13.5020 1.9284 0.0777 255 200 100
6.3464 0.2190 0.0304 255 200 100
28.0469 15.1110 6.4409 255 200 100
15.5605 3.9247 0.1166 255 200 100
13.1394 6.3155 0.0117 255 200 100
23.6051 -10.6701 5.4448 255 200 100
16.2285 -0.4425 0.7783 255 200 100
8.4382 2.5687 0.0028 255 200 100
7.8987 -0.4982 0.0277 255 200 100
11.1751 -4.6777 0.0361 255 200 100
21.5007 2.5016 1.3786 255 200 100
11.6141 -2.2495 0.0635 255 200 100
16.0624 -1.0615 1.4905 255 200 100
9.4323 1.5692 0.0290 255 200 100
15.7844 -2.8790 1.8497 255 200 100
31.9549 11.2111 1.2060 255 200 100
11.7651 3.8144 0.0083 255 200 100
11.8534 1.1008 0.0555 255 200 100
22.1831 5.7677 1.9009 255 200 100
6.7296 1.3710 0.0112 255 200 100
18.3833 8.2457 0.1585 255 200 100
23.9664 -9.4237 4.2248 255 200 100
17.8753 1.9829 0.2681 255 200 100
7.2113 -1.9704 -0.0210 255 200 100
15.8572 -3.2557 2.2056 255 200 100
23.8312 -9.9858 4.2427 255 200 100
7.8930 -0.2960 0.0323 255 200 100
6.6671 1.6777 0.0104 255 200 100
35.0864 14.0417 4.6042 255 200 100
25.0227 -9.3747 1.2993 255 200 100
15.5170 4.3700 0.1143 255 200 100
23.9357 -9.5603 4.2291 255 200 100
15.4512 2.3084 0.1479 255 200 100
7.7618 2.0771 0.0093 255 200 100
15.4575 2.3954 0.1465 255 200 100
18.0530 3.2244 0.2466 255 200 100
24.9811 -9.6743 3.7169 255 200 100
28.1171 14.9411 6.4331 255 200 100
24.7405 -10.7159 3.1350 255 200 100
19.9669 -7.7907 0.4606 255 200 100
7.2136 1.5986 0.0141 255 200 100
28.8683 15.1816 5.7875 255 200 100
7.8096 1.7055 0.0172 255 200 100
11.8585 1.4207 0.0514 255 200 100
24.4463 -11.4113 2.5427 255 200 100
24.8371 -10.1076 1.3081 255 200 100
11.3982 -3.6499 0.0496 255 200 100
18.3595 8.8611 0.1498 255 200 100
6.7660 -1.1750 0.0029 255 200 100
6.7513 3.3982 -0.0196 255 200 100
7.2885 0.4749 0.0326 255 200 100
7.0295 2.4579 0.0035 255 200 100
15.2945 7.1037 0.0770 255 200 100
6.7007 1.5426 0.0095 255 200 100
11.7008 -1.3670 0.0694 255 200 100
8.4337 -3.0493 -0.0458 255 200 100
17.3142 -2.5786 0.3026 255 200 100
23.8022 -4.1705 3.4754 255 200 100
15.3841 0.4288 0.1624 255 200 100
10.4766 2.2786 0.0246 255 200 100
15.4685 -4.5167 1.1564 255 200 100
6.3447 0.5039 0.0264 255 200 100
26.1377 -3.1235 4.2134 255 200 100
16.9774 -4.0795 0.3150 255 200 100
23.9910 -8.8193 0.7491 255 200 100
13.1148 -1.9834 0.1189 255 200 100
24.2428 -8.3015 4.7749 255 200 100
31.1738 13.3159 2.7880 255 200 100
9.1395 4.4462 -0.0624 255 200 100
9.3372 3.3019 -0.0250 255 200 100
24.9844 -5.4078 4.7334 255 200 100
23.2768 -12.1403 4.3254 255 200 100
27.5165 -2.8441 5.5983 255 200 100
7.8451 1.3334 0.0240 255 200 100
25.5929 -7.0531 1.8740 255 200 100
15.4243 1.7030 0.1550 255 200 100
25.3161 -8.0584 2.4804 255 200 100
23.7442 -4.1546 2.9282 255 200 100
9.4522 0.9135 0.0385 255 200 100
17.4816 -1.8228 0.2940 255 200 100
9.4722 -0.3775 0.0370 255 200 100
7.8986 0.1113 0.0333 255 200 100
8.5856 0.6997 0.0371 255 200 100
25.4750 -8.1131 3.0843 255 200 100
7.8018 -2.1143 -0.0164 255 200 100
13.5288 3.5409 0.0469 255 200 100
21.6498 1.4447 0.4057 255 200 100
6.7651 1.0255 0.0176 255 200 100
30.7443 13.1806 1.2589 255 200 100
13.5162 3.0719 0.0584 255 200 100
8.6024 -1.3222 0.0113 255 200 100
32.4655 -2.0781 4.7917 255 200 100
24.5659 -11.1441 1.3216 255 200 100
9.0002 4.8040 -0.0639 255 200 100
25.3259 -8.3720 3.6892 255 200 100
6.3976 2.6624 -0.0010 255 200 100
11.6392 -1.8684 0.0691 255 200 100
25.8899 -6.0636 3.6573 255 200 100
24.9121 -5.6843 4.7346 255 200 100
9.4354 -1.7866 0.0111 255 200 100
9.3941 2.4992 0.0041 255 200 100
8.5095 -2.0940 -0.0015 255 200 100
21.5438 2.6235 1.3783 255 200 100
7.8698 1.2540 0.0205 255 200 100
10.3694 3.9588 -0.0248 255 200 100
6.7539 -1.3144 -0.0015 255 200 100
15.7754 -2.9657 1.8503 255 200 100
30.0556 15.6200 0.5417 255 200 100
11.8770 2.2756 0.0343 255 200 100
27.7782 -2.8559 4.3620 255 200 100
10.0623 5.3596 -0.0559 255 200 100
18.3838 7.0400 0.1775 255 200 100
7.8168 -2.0308 -0.0147 255 200 100
6.9183 2.8703 -0.0054 255 200 100
7.3019 -0.0070 0.0315 255 200 100
7.7796 1.9964 0.0095 255 200 100
13.5316 2.8410 0.0605 255 200 100
16.1087 -0.7943 1.1379 255 200 100
24.0053 -9.1240 5.3839 255 200 100
8.5422 1.7871 0.0175 255 200 100
17.1963 -3.2396 0.3061 255 200 100
13.5377 2.0830 0.0710 255 200 100
11.4770 5.4639 -0.0192 255 200 100
12.8098 -3.5353 0.1237 255 200 100
14.1770 -5.5035 0.2086 255 200 100
11.3297 6.0968 -0.0311 255 200 100
18.3955 7.3983 0.1711 255 200 100
7.8613 1.2124 0.0241 255 200 100
15.5163 -4.1610 1.1553 255 200 100
7.7783 1.9519 0.0123 255 200 100
8.6042 -1.1392 0.0170 255 200 100
7.8766 0.8422 0.0307 255 200 100
6.7849 -0.8280 0.0137 255 200 100
21.0838 2.9338 0.9189 255 200 100
11.7342 -0.9890 0.0699 255 200 100
10.1319 -4.1352 -0.0177 255 200 100
15.5323 3.7345 0.1226 255 200 100
11.5776 -3.0303 0.0450 255 200 100
10.0264 -4.5421 -0.0252 255 200 100
16.3574 0.0812 1.4863 255 200 100
7.3073 -0.4164 0.0254 255 200 100
11.6262 -1.9956 0.0681 255 200 100
22.4711 6.8345 0.3413 255 200 100
10.4999 0.7984 0.0489 255 200 100
8.6035 -0.6854 0.0287 255 200 100
8.5927 0.2063 0.0393 255 200 100
16.2141 -0.5448 1.8444 255 200 100
13.4064 0.0137 0.0991 255 200 100
17.6628 -0.4776 0.2856 255 200 100
28.9933 10.7209 0.5762 255 200 100
15.3939 0.7681 0.1613 255 200 100
35.3998 13.6048 1.1483 255 200 100
29.8410 10.8290 1.2535 255 200 100
7.7188 -2.8040 -0.0479 255 200 100
24.0244 -9.1314 4.7971 255 200 100
15.6758 -3.4774 0.7983 255 200 100
22.2347 5.4242 0.3624 255 200 100
24.8347 -10.2624 3.7326 255 200 100
25.0866 -9.2381 3.7061 255 200 100
8.4933 2.2476 0.0078 255 200 100
10.4723 2.1037 0.0304 255 200 100
16.0919 -1.1535 1.8441 255 200 100
10.4739 -0.3722 0.0538 255 200 100
25.2463 -8.9807 3.0990 255 200 100
16.3266 0.0001 0.7729 255 200 100
36.7049 11.7424 1.9758 255 200 100
16.2725 -0.2645 0.7758 255 200 100
28.2834 13.7496 3.4644 255 200 100
11.3502 6.0260 -0.0302 255 200 100
10.4600 -1.0371 0.0475 255 200 100
31.2284 16.5329 4.5098 255 200 100
6.6124 1.9533 0.0057 255 200 100
6.7642 1.0951 0.0149 255 200 100
7.4402 3.5949 -0.0341 255 200 100
9.1804 4.3441 -0.0626 255 200 100
29.7410 11.1910 6.3222 255 200 100
17.3881 -2.2968 0.2985 255 200 100
13.4857 4.3311 0.0331 255 200 100
15.1013 -1.3904 0.1856 255 200 100
7.2784 0.8100 0.0285 255 200 100
15.4381 2.0473 0.1514 255 200 100
7.8834 -0.8227 0.0241 255 200 100
6.3034 1.1091 0.0163 255 200 100
8.4427 -3.0010 -0.0442 255 200 100
8.5930 -1.4090 0.0104 255 200 100
6.2598 1.2963 0.0195 255 200 100
27.9614 14.1181 4.8974 255 200 100
13.5288 2.3835 0.0682 255 200 100
25.4690 -3.4818 5.3256 255 200 100
10.4059 -1.8196 0.0387 255 200 100
9.4328 1.2135 0.0374 255 200 100
9.4767 -0.0307 0.0384 255 200 100
6.3475 0.4726 0.0262 255 200 100
24.5641 -11.2982 3.7634 255 200 100
17.2345 -2.9525 0.3059 255 200 100
15.0407 8.5820 0.0588 255 200 100
17.3366 -2.4854 0.3015 255 200 100
14.2057 -5.4286 0.2076 255 200 100
27.4016 0.4554 0.6191 255 200 100
7.1588 -2.2358 -0.0277 255 200 100
7.8782 1.0481 0.0250 255 200 100
21.5214 2.2684 0.8966 255 200 100
7.4019 3.7731 -0.0435 255 200 100
11.6881 -1.4917 0.0691 255 200 100
21.5259 2.0330 0.8957 255 200 100
35.4517 13.5930 2.0137 255 200 100
30.5896 13.3165 1.2645 255 200 100
10.4882 2.6378 0.0109 255 200 100
23.3431 -11.8413 4.3116 255 200 100
29.5038 -0.7266 4.5101 255 200 100
11.8252 3.3457 0.0146 255 200 100
7.7749 -2.4591 -0.0341 255 200 100
29.9653 -2.4279 5.9351 255 200 100
11.8558 1.4864 0.0510 255 200 100
10.1149 5.1767 -0.0525 255 200 100
9.1901 -4.0041 -0.0651 255 200 100
11.7905 3.4706 0.0161 255 200 100
22.1658 5.0177 0.3681 255 200 100
6.8126 0.0640 0.0232 255 200 100
7.2226 1.5622 0.0135 255 200 100
15.9093 -2.0937 0.7923 255 200 100
24.4694 -7.3294 5.3370 255 200 100
28.2785 13.9442 3.4730 255 200 100
6.7939 -0.2095 0.0273 255 200 100
7.0203 2.4133 0.0097 255 200 100
8.3222 -3.5701 -0.0629 255 200 100
9.4632 0.6647 0.0392 255 200 100
15.3107 6.9065 0.0807 255 200 100
24.6863 -6.5097 5.3250 255 200 100
6.7935 0.5088 0.0249 255 200 100
15.3806 6.3289 0.0881 255 200 100
8.1563 3.9847 -0.0396 255 200 100
11.7126 -1.3035 0.0685 255 200 100
17.6973 -0.0893 0.2838 255 200 100
11.5083 5.3238 -0.0168 255 200 100
26.0469 -5.3412 3.6512 255 200 100
12.4943 -5.0403 0.1131 255 200 100
19.7135 -8.7250 0.4662 255 200 100
18.3660 8.4846 0.1559 255 200 100
16.4353 -1.3490 0.7599 255 200 100
27.9716 13.9271 4.8852 255 200 100
6.8040 0.1329 0.0258 255 200 100
10.2129 -3.7910 -0.0118 255 200 100
10.3213 -2.7891 0.0188 255 200 100
26.1404 -5.2052 3.0518 255 200 100
9.4657 -1.0269 0.0275 255 200 100
7.2931 -1.0918 0.0083 255 200 100
24.9244 -9.9773 3.1170 255 200 100
15.9455 -1.6641 1.4927 255 200 100
10.5034 1.1369 0.0445 255 200 100
15.7233 -2.9521 1.4986 255 200 100
24.6538 -6.7871 4.1702 255 200 100
15.9934 -2.3839 2.1999 255 200 100
30.5726 13.4590 2.7821 255 200 100
15.7867 -2.5204 1.1477 255 200 100
9.0413 4.7025 -0.0636 255 200 100
13.0863 6.4640 0.0126 255 200 100
18.5848 -9.4723 0.9973 255 200 100
14.7176 -3.5009 0.1980 255 200 100
16.0713 -1.2268 0.7858 255 200 100
24.5917 -10.8184 2.5292 255 200 100
17.0819 -3.7063 0.3106 255 200 100
9.4637 -0.8274 0.0321 255 200 100
23.4042 13.8067 0.2312 255 200 100
18.1242 -9.7444 1.0178 255 200 100
25.3960 -8.0842 3.6838 255 200 100
15.4080 1.2770 0.1587 255 200 100
28.8208 -2.6536 5.1130 255 200 100
7.9079 0.5180 0.0282 255 200 100
25.2944 -8.2047 1.8870 255 200 100
9.3614 -2.9896 -0.0313 255 200 100
25.7069 -6.7846 3.6640 255 200 100
25.2173 -8.4905 1.8907 255 200 100
8.5929 -1.5035 0.0068 255 200 100
30.1572 15.8286 2.0854 255 200 100
7.1953 1.7502 0.0103 255 200 100
23.0115 9.9483 0.2880 255 200 100
15.5298 -4.7191 1.5083 255 200 100
7.8033 1.8309 0.0124 255 200 100
21.9971 4.3377 0.3811 255 200 100
15.5286 4.2819 0.1145 255 200 100
8.6018 -0.3292 0.0347 255 200 100
30.7203 17.9659 2.1381 255 200 100
10.2492 4.6975 -0.0451 255 200 100
9.4462 -1.6848 0.0125 255 200 100
11.8467 1.3571 0.0541 255 200 100
31.4818 12.6396 2.0062 255 200 100
24.8137 -10.4157 3.7380 255 200 100
18.3855 7.1579 0.1756 255 200 100
25.6827 -6.6188 2.4634 255 200 100
10.2845 -3.0782 0.0124 255 200 100
23.7062 -9.6333 0.7598 255 200 100
11.8733 2.8092 0.0224 255 200 100
24.0444 -8.9874 5.3799 255 200 100
26.9566 -2.9343 5.5216 255 200 100
18.5387 10.6945 0.0980 255 200 100
11.0884 -4.9993 0.0322 255 200 100
7.2630 -1.5486 -0.0069 255 200 100
12.9033 7.0991 0.0088 255 200 100
15.1655 -1.0636 0.1811 255 200 100
8.2849 -3.7122 -0.0672 255 200 100
7.8717 -1.0278 0.0207 255 200 100
16.0424 -1.1421 1.1400 255 200 100
14.8289 -3.1033 0.1929 255 200 100
15.3942 -0.2378 0.1596 255 200 100
12.7194 -3.9593 0.1227 255 200 100
15.9322 -1.7453 1.1433 255 200 100
8.5445 1.5571 0.0256 255 200 100
24.9525 -5.6898 4.1611 255 200 100
15.7254 -3.1289 0.7977 255 200 100
7.1398 2.0099 0.0085 255 200 100
25.2430 -8.5026 1.2895 255 200 100
12.1797 -5.9501 0.1146 255 200 100
11.1911 -4.6137 0.0370 255 200 100
11.7765 -0.4863 0.0685 255 200 100
16.2058 -1.2554 2.1988 255 200 100
13.1200 -1.9123 0.1194 255 200 100
15.9102 -1.9244 1.4935 255 200 100
7.9125 0.4778 0.0275 255 200 100
7.8933 0.0710 0.0346 255 200 100
6.7585 1.1649 0.0133 255 200 100
7.8347 -1.9482 -0.0141 255 200 100
15.0733 8.3767 0.0621 255 200 100
7.6843 -2.9743 -0.0543 255 200 100
8.5176 -2.3836 -0.0198 255 200 100
11.8113 0.2066 0.0659 255 200 100
10.4142 -1.8797 0.0354 255 200 100
30.0995 15.3600 2.0740 255 200 100
15.9921 -1.4046 1.4918 255 200 100
20.6724 1.5818 1.8549 255 200 100
11.8162 0.3324 0.0652 255 200 100
14.3748 -4.7794 0.2069 255 200 100
25.4089 -7.7719 1.8818 255 200 100
24.5806 -7.0641 4.1739 255 200 100
24.3822 -7.7523 4.7623 255 200 100
7.2612 -1.5872 -0.0088 255 200 100
10.4293 3.6007 -0.0177 255 200 100
17.5015 -1.4367 0.2951 255 200 100
6.7411 1.2315 0.0153 255 200 100
7.3110 -0.0808 0.0285 255 200 100
7.2739 1.1117 0.0200 255 200 100
25.0207 -9.2115 2.4983 255 200 100
10.4694 3.3643 -0.0142 255 200 100
13.0907 -2.1259 0.1196 255 200 100
28.8319 16.8985 0.6022 255 200 100
8.3678 -3.3807 -0.0570 255 200 100
6.4968 2.3588 0.0026 255 200 100
7.5699 2.9900 -0.0091 255 200 100
24.6896 -10.5360 1.9213 255 200 100
8.4680 -2.8108 -0.0362 255 200 100
10.4798 2.3412 0.0221 255 200 100
15.6577 -3.5626 0.7989 255 200 100
14.6911 -3.6661 0.1976 255 200 100
30.8277 14.5711 4.3755 255 200 100
9.4682 0.4671 0.0397 255 200 100
29.9308 16.7106 4.4488 255 200 100
15.4998 4.7335 0.1098 255 200 100
10.4863 1.3609 0.0443 255 200 100
21.0164 1.4899 1.8543 255 200 100
15.0863 -1.5538 0.1856 255 200 100
14.1410 -5.6706 0.2075 255 200 100
29.0356 15.0651 5.7943 255 200 100
13.9523 -6.3183 0.2075 255 200 100
12.6927 -4.1043 0.1215 255 200 100
23.8161 -9.9784 4.8263 255 200 100
13.3707 5.2850 0.0193 255 200 100
27.6232 -2.8474 4.9763 255 200 100
18.3338 5.3160 0.2037 255 200 100
8.5743 1.2411 0.0284 255 200 100
24.3689 -7.8904 4.1882 255 200 100
8.2628 3.5567 -0.0266 255 200 100
11.6288 -2.9120 0.0409 255 200 100
29.1415 11.3452 0.5712 255 200 100
9.4669 0.7161 0.0379 255 200 100
15.7818 -2.6074 1.1476 255 200 100
6.3531 0.3145 0.0271 255 200 100
16.7362 -5.1093 0.3205 255 200 100
9.9972 -4.6610 -0.0281 255 200 100
23.7973 -9.3630 0.7564 255 200 100
11.5947 -2.9689 0.0444 255 200 100
13.2887 -0.7755 0.1109 255 200 100
13.5189 3.3820 0.0517 255 200 100
13.1804 6.1560 0.0127 255 200 100
16.5747 -5.6672 0.3250 255 200 100
29.4972 -0.8900 4.5096 255 200 100
10.2366 -3.5484 -0.0027 255 200 100
6.7827 -0.9674 0.0083 255 200 100
9.4210 -2.0962 0.0017 255 200 100
13.4965 1.2605 0.0844 255 200 100
30.1203 15.8784 0.5395 255 200 100
18.3419 5.6493 0.1993 255 200 100
8.5645 0.9681 0.0374 255 200 100
7.0713 2.2683 0.0079 255 200 100
10.9289 -5.4372 0.0313 255 200 100
16.6022 -5.5723 0.3243 255 200 100
8.5298 -1.9103 0.0033 255 200 100
11.6760 -2.5250 0.0457 255 200 100
10.2335 -3.7349 -0.0123 255 200 100
12.9443 7.0330 0.0065 255 200 100
18.2908 -9.0584 1.0122 255 200 100
8.5551 1.2859 0.0317 255 200 100
16.3493 -0.3485 0.4084 255 200 100
15.8511 -2.1772 1.1457 255 200 100
7.7475 -2.6756 -0.0443 255 200 100
15.8048 -2.6935 0.7955 255 200 100
25.0223 -5.4162 4.1595 255 200 100
15.1413 -1.1442 0.1832 255 200 100
11.3268 -3.9669 0.0471 255 200 100
11.6024 4.8371 -0.0080 255 200 100
7.8589 -1.6967 -0.0057 255 200 100
16.2654 -0.0980 1.4879 255 200 100
16.5271 -0.1097 2.2062 255 200 100
11.6362 -1.9298 0.0681 255 200 100
11.2519 -4.3553 0.0405 255 200 100
9.4713 -0.6759 0.0332 255 200 100
25.1693 -8.6317 2.4888 255 200 100
9.4698 -0.4268 0.0369 255 200 100
31.0557 15.5533 4.4432 255 200 100
27.5616 0.9182 0.6130 255 200 100
7.1855 1.8269 0.0082 255 200 100
11.7952 0.0810 0.0684 255 200 100
23.6600 -10.5395 4.8465 255 200 100
26.3466 -4.1843 3.0468 255 200 100
9.0939 4.6061 -0.0660 255 200 100
9.3669 -2.9385 -0.0295 255 200 100
7.1797 1.7849 0.0125 255 200 100
24.9547 -9.5080 1.9049 255 200 100
15.8486 -2.4391 0.7942 255 200 100
15.0904 8.2769 0.0635 255 200 100
9.4776 -0.1294 0.0378 255 200 100
7.1214 2.0845 0.0082 255 200 100
10.4750 0.2939 0.0561 255 200 100
7.2774 -1.3185 0.0019 255 200 100
23.5703 -10.9752 4.2769 255 200 100
25.1428 -8.7825 1.8945 255 200 100
10.2870 4.5131 -0.0407 255 200 100
7.8471 -1.8215 -0.0097 255 200 100
23.6096 -10.8345 4.2719 255 200 100
15.3982 1.1058 0.1603 255 200 100
15.8703 -3.1664 2.2048 255 200 100
13.2174 -1.1295 0.1173 255 200 100
15.5167 3.6411 0.1257 255 200 100
30.7221 11.5030 2.7259 255 200 100
27.8538 12.5455 4.0922 255 200 100
24.6386 -6.7856 4.7465 255 200 100
6.7938 0.2684 0.0282 255 200 100
21.5679 0.9585 0.4106 255 200 100
24.8485 -10.2688 3.1238 255 200 100
24.8114 -6.0987 4.7383 255 200 100
30.1541 16.0161 2.8632 255 200 100
7.5812 2.9018 -0.0045 255 200 100
30.3888 16.9219 0.5302 255 200 100
15.7485 -2.7800 1.1487 255 200 100
18.3411 5.4282 0.2018 255 200 100
38.2030 1.0543 0.9863 255 200 100
11.8061 0.2713 0.0668 255 200 100
7.8189 1.5372 0.0225 255 200 100
15.4850 5.2026 0.1023 255 200 100
8.5836 0.6549 0.0381 255 200 100
24.5265 -7.1974 4.7521 255 200 100
28.4031 15.4398 3.5480 255 200 100
7.4832 3.4235 -0.0275 255 200 100
25.2940 -4.1731 5.3194 255 200 100
10.4835 -0.4245 0.0516 255 200 100
17.8469 1.8809 0.2710 255 200 100
11.8479 1.0348 0.0570 255 200 100
12.8620 -3.2510 0.1247 255 200 100
13.0551 -2.2663 0.1217 255 200 100
24.8799 -5.8258 4.7360 255 200 100
32.2422 11.6799 2.7597 255 200 100
6.7798 3.3248 -0.0184 255 200 100
7.8824 0.6816 0.0324 255 200 100
9.4491 -0.8756 0.0343 255 200 100
6.7722 3.3653 -0.0212 255 200 100
15.9836 -1.4936 1.4919 255 200 100
10.3759 -2.3333 0.0271 255 200 100
22.0220 4.5967 0.3790 255 200 100
13.5384 2.2328 0.0690 255 200 100
6.3309 0.7579 0.0234 255 200 100
6.7984 -0.7253 0.0134 255 200 100
21.5391 0.8383 0.4124 255 200 100
30.2204 16.2719 2.8736 255 200 100
25.5488 -7.5069 3.0721 255 200 100
35.1178 -2.6233 3.4395 255 200 100
13.4819 4.4924 0.0291 255 200 100
24.0598 -8.9931 4.7930 255 200 100
13.3635 -0.2732 0.1040 255 200 100
14.5365 -4.2244 0.2027 255 200 100
15.0832 -1.4710 0.1869 255 200 100
11.6156 4.7690 -0.0070 255 200 100
9.2581 -3.6846 -0.0552 255 200 100
7.3161 -0.1177 0.0268 255 200 100
9.1031 4.5493 -0.0633 255 200 100
24.1813 -8.4304 5.3622 255 200 100
9.9158 -4.8867 -0.0297 255 200 100
26.4488 -4.0575 3.6551 255 200 100
32.9591 12.3093 4.3922 255 200 100
6.7979 -0.1407 0.0268 255 200 100
23.5390 -11.1201 4.2829 255 200 100
24.3664 -7.7442 5.3461 255 200 100
6.6063 1.9879 0.0046 255 200 100
15.8664 -2.3539 0.7936 255 200 100
24.3232 -11.8612 3.1621 255 200 100
22.6807 4.9925 0.8511 255 200 100
29.1523 18.4584 5.3086 255 200 100
15.8232 -2.3481 1.1465 255 200 100
10.3431 4.1409 -0.0297 255 200 100
25.8174 -6.3531 3.6598 255 200 100
8.3610 2.8841 0.0006 255 200 100
10.4463 -1.2043 0.0468 255 200 100
21.0332 3.0446 0.9215 255 200 100
23.7566 -10.2655 4.2517 255 200 100
11.4583 -3.3963 0.0503 255 200 100
11.7010 4.3645 -0.0029 255 200 100
31.1826 16.0607 4.4796 255 200 100
12.1115 -6.1687 0.1130 255 200 100
11.7606 4.1699 -0.0044 255 200 100
13.2982 5.6857 0.0149 255 200 100
15.8085 -3.5139 2.2078 255 200 100
6.3594 -0.0652 0.0262 255 200 100
16.3631 0.0851 1.1288 255 200 100
15.5383 -4.4435 0.4408 255 200 100
9.4574 -1.3300 0.0215 255 200 100
8.3212 3.1690 -0.0100 255 200 100
15.2455 -0.5730 0.1752 255 200 100
15.4730 -4.6086 0.8018 255 200 100
11.8356 0.6520 0.0613 255 200 100
18.3865 7.8774 0.1644 255 200 100
15.5736 -4.8292 1.5077 255 200 100
25.0444 -9.5397 3.1078 255 200 100
15.3930 6.2352 0.0891 255 200 100
15.0589 8.4786 0.0603 255 200 100
15.1914 7.7903 0.0680 255 200 100
21.5023 1.7884 0.8961 255 200 100
8.5945 0.5654 0.0366 255 200 100
30.6429 13.5526 1.2661 255 200 100
15.7153 -3.0415 1.4990 255 200 100
8.4943 -2.6693 -0.0326 255 200 100
24.3084 -12.0328 1.9486 255 200 100
10.4577 -0.9257 0.0499 255 200 100
11.6285 -2.0579 0.0662 255 200 100
8.5254 -2.0511 -0.0029 255 200 100
7.3089 -0.9034 0.0114 255 200 100
25.3831 -7.7613 2.4762 255 200 100
21.3819 1.3992 1.8538 255 200 100
15.9423 -1.9226 0.7910 255 200 100
15.5723 -4.0871 0.8001 255 200 100
23.3263 -11.8294 4.9035 255 200 100
14.9946 8.8908 0.0532 255 200 100
23.1974 11.3033 0.2659 255 200 100
10.2189 4.8174 -0.0473 255 200 100
22.9000 9.2908 0.2997 255 200 100
6.3571 -0.0965 0.0268 255 200 100
13.4646 4.7349 0.0243 255 200 100
10.2326 -3.6085 -0.0052 255 200 100
10.5022 0.7430 0.0489 255 200 100
29.4284 18.3690 1.3658 255 200 100
25.6163 -7.2193 3.0682 255 200 100
8.4776 2.3396 0.0066 255 200 100
29.6225 13.9233 0.5567 255 200 100
24.9766 -9.3531 2.5006 255 200 100
17.2832 -2.7672 0.3034 255 200 100
18.3333 11.1265 0.1062 255 200 100
15.4539 -4.7911 1.1563 255 200 100
8.5949 -0.7753 0.0289 255 200 100
9.4806 0.4168 0.0373 255 200 100
17.0084 -3.9889 0.3134 255 200 100
29.5459 11.7109 5.6003 255 200 100
16.1723 -1.4312 2.1986 255 200 100
29.4421 13.2263 0.5629 255 200 100
23.7344 -10.2543 4.8354 255 200 100
18.0957 3.5437 0.2408 255 200 100
7.7875 -2.2861 -0.0246 255 200 100
25.0591 -9.3863 3.7102 255 200 100
8.4246 2.6611 0.0003 255 200 100
10.4642 1.8705 0.0379 255 200 100
13.5110 3.8559 0.0420 255 200 100
24.5218 -11.1154 2.5359 255 200 100
11.3365 -3.9020 0.0484 255 200 100
10.4390 -1.4287 0.0431 255 200 100
16.2252 -0.2733 1.4884 255 200 100
14.9070 -2.7817 0.1896 255 200 100
21.6011 2.8762 1.3785 255 200 100
25.3280 -8.0603 1.8853 255 200 100
15.8055 -8.2092 0.3366 255 200 100
25.1083 -9.0895 1.2957 255 200 100
10.5001 1.0788 0.0458 255 200 100
12.6592 -4.4009 0.1156 255 200 100
10.5023 1.0232 0.0461 255 200 100
31.2279 12.7387 2.0091 255 200 100
11.2349 -4.4205 0.0400 255 200 100
25.0858 -5.1367 4.1577 255 200 100
6.8024 -0.5882 0.0167 255 200 100
25.0506 -9.3825 3.1031 255 200 100
25.6049 -6.9022 2.4661 255 200 100
25.0073 -5.2732 5.3164 255 200 100
13.3790 5.2040 0.0209 255 200 100
7.8701 -1.2736 0.0117 255 200 100
8.4858 -2.7169 -0.0338 255 200 100
25.2177 -8.6460 1.2908 255 200 100
7.8868 -0.7416 0.0254 255 200 100
23.1420 10.6341 0.2745 255 200 100
25.3660 -8.2298 3.6869 255 200 100
20.8376 2.7891 0.4629 255 200 100
10.4852 2.4581 0.0175 255 200 100
6.3255 0.8209 0.0227 255 200 100
24.4699 -11.4297 1.9370 255 200 100
15.8758 -2.2674 0.7935 255 200 100
15.2824 7.2041 0.0755 255 200 100
14.7726 -3.3455 0.1948 255 200 100
21.5899 1.0824 0.4093 255 200 100
17.4876 -1.6307 0.2950 255 200 100
24.3949 -7.6009 5.3419 255 200 100
16.1578 -0.6980 0.4246 255 200 100
23.5253 -10.9494 5.4569 255 200 100
6.3711 0.0616 0.0227 255 200 100
7.6186 -3.2282 -0.0620 255 200 100
13.9281 -6.3994 0.2074 255 200 100
13.4794 4.4101 0.0317 255 200 100
30.5081 17.3773 2.1236 255 200 100
21.5067 0.4813 0.4138 255 200 100
29.5214 12.2136 2.0037 255 200 100
21.6975 2.4202 0.4033 255 200 100
11.5009 -3.2072 0.0508 255 200 100
15.6896 -3.1246 1.4997 255 200 100
25.1111 -4.8595 5.3158 255 200 100
6.3654 -0.0338 0.0244 255 200 100
21.7658 6.0735 0.8967 255 200 100
23.1829 10.8118 0.2705 255 200 100
9.3600 -3.0458 -0.0344 255 200 100
16.1566 -0.7036 0.7822 255 200 100
10.4737 -0.2586 0.0547 255 200 100
15.8422 -3.3420 2.2063 255 200 100
13.3207 -0.6320 0.1077 255 200 100
22.8218 8.8150 0.3078 255 200 100
9.4725 0.0694 0.0396 255 200 100
29.6000 11.5422 5.5950 255 200 100
11.7301 -2.6715 0.0325 255 200 100
28.1035 14.7321 6.4120 255 200 100
6.7556 -1.2442 0.0022 255 200 100
8.4710 2.4319 0.0031 255 200 100
23.2290 -12.1024 5.5173 255 200 100
9.2755 3.8528 -0.0468 255 200 100
18.3938 8.0058 0.1616 255 200 100
16.1884 -1.3420 2.1986 255 200 100
6.5889 2.0939 0.0006 255 200 100
16.0063 -1.3138 1.1411 255 200 100
7.4999 3.3826 -0.0276 255 200 100
24.2803 -8.1604 4.7717 255 200 100
10.9984 -5.2515 0.0317 255 200 100
7.6598 -3.0102 -0.0516 255 200 100
25.3019 -8.5200 3.6929 255 200 100
7.2633 -1.6266 -0.0118 255 200 100
15.5469 4.1022 0.1154 255 200 100
9.4590 0.8659 0.0377 255 200 100
11.3668 -3.7743 0.0493 255 200 100
15.9116 -2.9963 2.2038 255 200 100
15.9265 -7.8276 0.3356 255 200 100
22.1279 1.4608 1.3587 255 200 100
23.6758 -10.3832 5.4317 255 200 100
11.7479 -0.8018 0.0700 255 200 100
11.8815 2.5414 0.0277 255 200 100
11.5879 4.9071 -0.0090 255 200 100
13.4501 0.7429 0.0931 255 200 100
11.2933 -4.1610 0.0434 255 200 100
11.2140 -4.5527 0.0366 255 200 100
24.9029 -5.8274 4.1607 255 200 100
24.7761 -6.2349 4.7396 255 200 100
11.8312 0.5886 0.0622 255 200 100
9.4138 -2.5186 -0.0164 255 200 100
11.3815 -3.7096 0.0497 255 200 100
11.8558 1.8774 0.0452 255 200 100
7.7277 2.3297 0.0020 255 200 100
21.3388 2.4896 0.9057 255 200 100
7.8642 1.1729 0.0247 255 200 100
25.1959 -8.4846 2.4863 255 200 100
10.2890 4.3796 -0.0334 255 200 100
9.4655 -1.4847 0.0151 255 200 100
8.5950 -0.4607 0.0346 255 200 100
17.7310 0.5939 0.2823 255 200 100
24.5668 -7.0580 4.7503 255 200 100
15.0067 8.7852 0.0555 255 200 100
25.1207 -4.9998 4.1573 255 200 100
18.1705 -9.5103 1.0164 255 200 100
13.4712 4.6549 0.0258 255 200 100
28.2042 -2.7522 5.0425 255 200 100
30.1870 16.6292 4.4578 255 200 100
18.3406 9.3665 0.1420 255 200 100
9.4838 0.2191 0.0372 255 200 100
26.2111 -4.9141 3.0505 255 200 100
24.3310 -7.8808 5.3492 255 200 100
16.1188 -0.7976 1.4897 255 200 100
13.4033 5.1298 0.0201 255 200 100
25.4962 -7.3344 2.4710 255 200 100
14.7088 -3.5833 0.1973 255 200 100
7.2787 0.9994 0.0226 255 200 100
15.8285 -3.4287 2.2071 255 200 100
11.7858 3.6815 0.0097 255 200 100
11.8607 1.5513 0.0493 255 200 100
12.8545 -3.3229 0.1238 255 200 100
17.7005 -0.1859 0.2832 255 200 100
10.0213 5.4062 -0.0522 255 200 100
15.5505 -4.1717 0.8008 255 200 100
11.0675 -5.0640 0.0318 255 200 100
11.6210 -2.1867 0.0641 255 200 100
12.8668 7.4607 -0.0031 255 200 100
7.8382 -1.9063 -0.0124 255 200 100
8.5167 -2.0005 0.0017 255 200 100
16.0688 -1.2216 0.4298 255 200 100
7.2778 -1.4349 -0.0045 255 200 100
15.9609 -1.5785 1.4924 255 200 100
13.5349 2.1595 0.0704 255 200 100
10.1008 -4.2511 -0.0194 255 200 100
8.4648 2.3805 0.0073 255 200 100
13.2823 5.7622 0.0142 255 200 100
29.5778 13.6984 0.5581 255 200 100
21.6225 5.3836 0.9013 255 200 100
7.7947 1.8711 0.0126 255 200 100
13.1573 -1.6280 0.1189 255 200 100
24.9466 -9.6644 1.3028 255 200 100
15.6294 -3.4663 1.1521 255 200 100
28.0176 13.7012 1.3345 255 200 100
6.2217 1.5163 0.0164 255 200 100
22.3521 5.9907 0.3526 255 200 100
19.6520 -8.8279 0.4690 255 200 100
7.8544 -1.3562 0.0122 255 200 100
24.7968 -10.2577 1.3100 255 200 100
15.8108 -2.4376 1.4960 255 200 100
7.5556 3.0776 -0.0131 255 200 100
6.3318 0.6617 0.0264 255 200 100
11.3504 -3.8366 0.0491 255 200 100
9.4799 -0.2790 0.0362 255 200 100
17.2989 -2.6730 0.3030 255 200 100
11.8677 3.0145 0.0176 255 200 100
27.7267 1.2374 0.6064 255 200 100
24.5119 -7.3427 4.1785 255 200 100
31.3657 -2.2011 6.1290 255 200 100
6.3126 0.9798 0.0199 255 200 100
6.7938 -0.0389 0.0288 255 200 100
8.5929 -1.2736 0.0152 255 200 100
24.9163 -9.6525 1.9071 255 200 100
10.4917 2.5186 0.0143 255 200 100
14.9799 -2.2894 0.1888 255 200 100
29.2858 18.3097 0.5854 255 200 100
10.4593 3.1745 -0.0042 255 200 100
16.2771 -0.2804 1.8449 255 200 100
7.3054 0.0678 0.0306 255 200 100
10.1795 5.0021 -0.0521 255 200 100
8.6002 -1.2293 0.0150 255 200 100
7.7264 -2.7598 -0.0460 255 200 100
21.6471 1.5644 0.4061 255 200 100
24.4050 -7.7580 4.1858 255 200 100
20.7464 1.8271 1.3924 255 200 100
24.5365 -11.1288 1.9316 255 200 100
7.8724 0.9653 0.0287 255 200 100
15.3956 1.1895 0.1604 255 200 100
6.8744 3.0215 -0.0094 255 200 100
31.6800 12.6688 3.5496 255 200 100
7.8026 1.5753 0.0250 255 200 100
12.5687 -4.8349 0.1114 255 200 100
24.6056 -6.9271 4.7489 255 200 100
16.4558 -6.1385 0.3265 255 200 100
15.4896 3.1890 0.1347 255 200 100
15.4077 0.2651 0.1595 255 200 100
9.4779 0.1188 0.0385 255 200 100
24.6118 -6.7807 5.3280 255 200 100
7.6610 2.5721 0.0017 255 200 100
16.1182 -1.0576 0.7834 255 200 100
10.4354 3.4761 -0.0131 255 200 100
13.1607 6.2347 0.0122 255 200 100
24.5054 -7.1933 5.3346 255 200 100
15.9037 -7.9224 0.3352 255 200 100
11.8713 2.4064 0.0324 255 200 100
7.2675 0.9591 0.0272 255 200 100
9.3922 2.6605 -0.0028 255 200 100
16.3757 -6.4208 0.3279 255 200 100
15.9154 -1.8334 1.1438 255 200 100
16.2373 -1.0816 2.1991 255 200 100
9.4025 2.2888 0.0112 255 200 100
10.4753 2.1621 0.0282 255 200 100
24.4468 -7.6184 4.1837 255 200 100
7.8470 -1.7363 -0.0048 255 200 100
9.4052 2.7168 -0.0081 255 200 100
10.0691 5.2929 -0.0526 255 200 100
8.4640 -2.9090 -0.0423 255 200 100
18.1669 -9.7659 1.4750 255 200 100
32.0916 -2.0696 6.2297 255 200 100
18.3326 9.7538 0.1352 255 200 100
13.4122 5.0496 0.0215 255 200 100
17.9999 2.9099 0.2532 255 200 100
21.8513 6.7742 0.3840 255 200 100
23.4399 -10.4552 0.7697 255 200 100
18.2517 4.7468 0.2169 255 200 100
7.3008 -0.8646 0.0151 255 200 100
21.7021 2.1786 0.4028 255 200 100
18.3720 6.7992 0.1819 255 200 100
13.0219 -2.4773 0.1219 255 200 100
15.1388 7.9756 0.0679 255 200 100
29.1042 13.7545 3.4951 255 200 100
6.3605 0.1242 0.0262 255 200 100
8.5810 0.8792 0.0352 255 200 100
25.4126 -7.6211 2.4743 255 200 100
15.4787 3.0114 0.1380 255 200 100
23.4526 -11.2384 5.4713 255 200 100
6.7909 0.5790 0.0242 255 200 100
15.5994 -3.6404 1.1530 255 200 100
14.3602 -4.8615 0.2064 255 200 100
7.8150 1.6659 0.0177 255 200 100
9.4775 -0.2296 0.0371 255 200 100
7.3078 -0.6030 0.0211 255 200 100
18.3936 7.6396 0.1675 255 200 100
17.8437 1.7789 0.2715 255 200 100
7.8903 0.1515 0.0354 255 200 100
7.7213 2.3715 0.0008 255 200 100
8.0893 4.2252 -0.0473 255 200 100
18.3542 6.4476 0.1883 255 200 100
18.3395 6.3249 0.1913 255 200 100
16.1487 -0.6269 1.4893 255 200 100
7.8775 -0.9455 0.0219 255 200 100
7.8183 -2.0733 -0.0179 255 200 100
14.7531 -3.4252 0.1954 255 200 100
10.4800 2.3980 0.0203 255 200 100
10.5064 1.1933 0.0431 255 200 100
25.0916 -4.9987 4.7326 255 200 100
9.3993 2.1297 0.0180 255 200 100
15.7704 -2.6941 1.4972 255 200 100
23.9308 -8.9481 0.7515 255 200 100
18.3606 6.6793 0.1846 255 200 100
16.0028 -2.2970 2.1995 255 200 100
25.0507 -9.0648 2.4956 255 200 100
23.7657 -10.1120 4.8295 255 200 100
23.7135 -10.4079 4.2561 255 200 100
6.7999 0.3038 0.0260 255 200 100
10.2477 -3.4912 -0.0016 255 200 100
11.2695 -4.2927 0.0408 255 200 100
13.4770 1.0375 0.0883 255 200 100
11.6831 4.4296 -0.0028 255 200 100
6.8044 -0.3471 0.0219 255 200 100
11.6525 -2.3891 0.0534 255 200 100
16.1236 -1.6903 2.1985 255 200 100
25.2821 -8.1977 2.4824 255 200 100
23.8988 -9.7040 4.2335 255 200 100
25.6427 -7.0720 3.6680 255 200 100
7.8677 -1.2330 0.0140 255 200 100
10.4894 1.4740 0.0417 255 200 100
15.7631 -2.6894 1.1482 255 200 100
15.2019 -0.8160 0.1787 255 200 100
15.0075 -2.1276 0.1878 255 200 100
8.3812 -3.2835 -0.0522 255 200 100
29.2423 10.4387 0.5638 255 200 100
29.9287 15.1246 0.5461 255 200 100
15.6764 -4.0228 0.4350 255 200 100
14.3154 -5.0232 0.2070 255 200 100
8.3103 -3.6170 -0.0644 255 200 100
8.2845 3.4613 -0.0238 255 200 100
18.3512 8.6057 0.1551 255 200 100
7.3091 -0.7523 0.0164 255 200 100
6.8149 3.2098 -0.0144 255 200 100
7.8690 -1.1094 0.0185 255 200 100
11.8532 0.9083 0.0571 255 200 100
26.3422 -4.1899 3.6499 255 200 100
18.3966 7.5178 0.1692 255 200 100
9.3988 -2.6746 -0.0214 255 200 100
6.7916 0.6466 0.0224 255 200 100
13.4002 0.0877 0.1002 255 200 100
9.4096 2.1844 0.0138 255 200 100
8.5000 -2.6236 -0.0309 255 200 100
30.6703 17.7035 2.1313 255 200 100
18.1682 4.0828 0.2302 255 200 100
15.5049 4.4580 0.1142 255 200 100
20.0948 -7.2026 0.4586 255 200 100
23.5351 -10.1801 0.7661 255 200 100
24.3256 -11.8646 2.5535 255 200 100
10.4871 0.0737 0.0537 255 200 100
7.8471 1.3753 0.0220 255 200 100
15.5006 3.3679 0.1312 255 200 100
11.8535 0.7163 0.0581 255 200 100
8.5022 2.2027 0.0080 255 200 100
31.6833 12.5462 1.2278 255 200 100
9.4239 -2.4136 -0.0133 255 200 100
23.4061 -11.5450 4.8906 255 200 100
6.3627 -0.2252 0.0234 255 200 100
7.4593 3.5062 -0.0299 255 200 100
7.4951 3.3322 -0.0217 255 200 100
15.6753 -3.2101 1.5002 255 200 100
29.6357 12.0962 1.2733 255 200 100
25.1336 -4.8634 4.7333 255 200 100
10.5024 0.6875 0.0493 255 200 100
24.8744 -9.9616 1.3063 255 200 100
7.7565 -2.5433 -0.0360 255 200 100
16.0067 -1.6754 1.8448 255 200 100
25.9882 -5.7800 3.6571 255 200 100
7.6246 2.7384 -0.0020 255 200 100
6.6749 1.6440 0.0105 255 200 100
17.1709 -3.3349 0.3072 255 200 100
13.5247 2.6872 0.0641 255 200 100
11.8543 0.8430 0.0573 255 200 100
14.8791 -2.8597 0.1915 255 200 100
23.3796 14.5200 0.2261 255 200 100
9.3422 -3.1513 -0.0371 255 200 100
6.3617 0.1548 0.0257 255 200 100
18.3607 8.3582 0.1586 255 200 100
15.9513 -1.8335 0.7909 255 200 100
28.9829 -2.6603 4.4718 255 200 100
20.7458 1.8374 0.9312 255 200 100
25.4651 -8.2615 3.0878 255 200 100
8.4718 -2.7611 -0.0337 255 200 100
8.2981 -3.6640 -0.0658 255 200 100
29.3579 17.0749 3.6623 255 200 100
27.8941 12.4558 2.0150 255 200 100
7.7373 -2.7171 -0.0452 255 200 100
11.6639 -2.4549 0.0497 255 200 100
22.2104 5.2916 0.3644 255 200 100
10.4819 1.7012 0.0385 255 200 100
9.1637 -4.1113 -0.0681 255 200 100
8.5957 -1.4582 0.0079 255 200 100
34.8938 13.5417 3.7113 255 200 100
28.6018 -3.7485 3.7994 255 200 100
15.0672 -1.7193 0.1860 255 200 100
18.3408 5.5349 0.2007 255 200 100
23.2060 10.9869 0.2677 255 200 100
8.3583 2.9340 -0.0021 255 200 100
13.0748 -2.1931 0.1205 255 200 100
15.5125 -4.2526 1.5069 255 200 100
15.6490 -3.3818 1.5012 255 200 100
16.3330 -6.5073 0.3299 255 200 100
14.4468 -4.5407 0.2050 255 200 100
37.8358 0.4070 0.9925 255 200 100
13.2727 -0.9197 0.1118 255 200 100
29.4813 13.4447 0.5618 255 200 100
22.6799 4.8609 0.8508 255 200 100
15.7862 -2.7837 0.7961 255 200 100
16.0586 -2.0375 2.1989 255 200 100
7.2265 -1.8545 -0.0167 255 200 100
15.5031 4.5523 0.1127 255 200 100
28.5147 15.3498 2.0821 255 200 100
18.4331 -9.0052 1.0057 255 200 100
15.4498 2.1344 0.1494 255 200 100
24.1000 -8.8567 4.7896 255 200 100
13.0116 6.6976 0.0124 255 200 100
9.4485 0.9643 0.0385 255 200 100
10.4762 -0.1468 0.0550 255 200 100
9.2511 -3.7390 -0.0577 255 200 100
7.5402 3.1155 -0.0127 255 200 100
13.3497 -0.4183 0.1051 255 200 100
23.4754 -11.2520 4.8766 255 200 100
25.9346 -5.9188 3.0549 255 200 100
11.8570 0.7798 0.0572 255 200 100
25.0876 -8.9208 2.4932 255 200 100
15.2126 7.6921 0.0687 255 200 100
9.3461 -3.0957 -0.0345 255 200 100
16.6904 -5.2989 0.3213 255 200 100
7.3007 0.4388 0.0296 255 200 100
23.4834 -10.3181 0.7681 255 200 100
6.8033 0.4062 0.0237 255 200 100
18.3231 9.8847 0.1334 255 200 100
37.9604 0.8408 0.9911 255 200 100
24.6508 -10.8476 1.3175 255 200 100
26.1758 -5.0619 3.0512 255 200 100
14.2697 -5.1821 0.2077 255 200 100
29.6617 12.9286 0.5519 255 200 100
6.8028 0.4403 0.0233 255 200 100
15.5120 -4.3461 1.5073 255 200 100
25.0042 -9.6885 3.1108 255 200 100
8.5555 1.1464 0.0353 255 200 100
7.2916 0.5121 0.0312 255 200 100
25.6150 -7.2172 3.6705 255 200 100
29.4628 13.3211 3.4898 255 200 100
6.2853 1.2026 0.0169 255 200 100
9.4153 -2.4643 -0.0141 255 200 100
6.7929 -0.4826 0.0225 255 200 100
24.5800 -6.9178 5.3305 255 200 100
26.3593 -4.4922 3.6561 255 200 100
6.7557 0.9902 0.0220 255 200 100
15.8055 -2.4330 1.1471 255 200 100
17.7579 0.8891 0.2800 255 200 100
7.2981 -0.4898 0.0265 255 200 100
17.4189 -2.2043 0.2965 255 200 100
8.5365 1.9268 0.0130 255 200 100
12.3137 -5.6046 0.1129 255 200 100
9.3782 2.9830 -0.0158 255 200 100
13.4866 1.1113 0.0866 255 200 100
7.8660 1.0884 0.0269 255 200 100
23.6257 -4.4210 4.5486 255 200 100
8.5954 -0.0149 0.0385 255 200 100
25.0649 -9.2318 1.2975 255 200 100
8.3004 3.3140 -0.0160 255 200 100
25.0451 -5.1374 5.3166 255 200 100
24.8869 -10.1281 3.1205 255 200 100
15.4649 2.6555 0.1433 255 200 100
21.5520 5.0870 1.8916 255 200 100
16.2055 -0.3606 1.4886 255 200 100
7.8900 0.4358 0.0338 255 200 100
25.4456 -7.6289 1.8802 255 200 100
11.8550 1.8105 0.0464 255 200 100
18.2071 4.4086 0.2240 255 200 100
11.7506 4.0233 0.0029 255 200 100
29.3312 -2.5429 5.8478 255 200 100
24.7633 -10.2378 1.9163 255 200 100
16.3405 0.0915 0.7722 255 200 100
16.1271 -0.7107 1.4896 255 200 100
23.8212 -9.8198 5.4085 255 200 100
10.4610 1.9861 0.0356 255 200 100
9.2466 4.0157 -0.0521 255 200 100
26.0234 -5.6325 3.0537 255 200 100
21.5321 2.1497 0.8958 255 200 100
12.7441 -3.8143 0.1241 255 200 100
37.9089 0.6205 0.9916 255 200 100
8.0741 4.2704 -0.0483 255 200 100
31.7247 12.4812 3.5442 255 200 100
15.3546 6.5197 0.0861 255 200 100
16.1871 -0.4504 1.4888 255 200 100
8.3189 3.2187 -0.0131 255 200 100
11.6872 -1.5549 0.0680 255 200 100
25.6997 -6.7793 3.0619 255 200 100
17.4452 -2.1111 0.2949 255 200 100
6.8032 -0.5188 0.0184 255 200 100
15.4576 0.0961 0.1533 255 200 100
14.0700 -5.9113 0.2079 255 200 100
28.9813 16.8851 2.8794 255 200 100
23.5718 -10.8128 5.4519 255 200 100
14.0527 -5.9975 0.2070 255 200 100
15.0181 8.6765 0.0580 255 200 100
11.5342 5.1822 -0.0138 255 200 100
9.3736 3.0363 -0.0177 255 200 100
16.1423 -0.7906 0.7829 255 200 100
24.3035 -8.1716 4.1945 255 200 100
8.2912 3.4142 -0.0216 255 200 100
15.4232 -0.1547 0.1565 255 200 100
23.3799 -11.5288 5.4864 255 200 100
9.4575 -0.9262 0.0314 255 200 100
25.4330 -3.6193 5.3239 255 200 100
7.7838 -2.3276 -0.0266 255 200 100
13.5132 1.5583 0.0798 255 200 100
23.6391 -10.5282 5.4381 255 200 100
23.9205 -9.5538 4.8111 255 200 100
6.3137 0.8838 0.0240 255 200 100
15.4961 4.9214 0.1066 255 200 100
6.7511 -1.3858 -0.0052 255 200 100
25.5004 -3.3434 5.3268 255 200 100
33.1351 11.3516 3.5609 255 200 100
9.4536 -1.8419 0.0052 255 200 100
7.9138 0.2744 0.0289 255 200 100
25.5462 -7.1928 1.8754 255 200 100
10.2979 -2.9596 0.0155 255 200 100
6.8010 0.2348 0.0263 255 200 100
15.4584 2.5679 0.1449 255 200 100
10.4750 -0.4809 0.0526 255 200 100
10.3494 -2.5606 0.0232 255 200 100
16.1467 -0.6237 1.1367 255 200 100
19.8519 -8.2573 0.4627 255 200 100
11.8522 3.2146 0.0143 255 200 100
10.5018 0.5765 0.0501 255 200 100
8.3992 2.7496 0.0007 255 200 100
21.5745 5.6176 1.4002 255 200 100
15.5303 -4.0745 1.1549 255 200 100
15.7347 -2.8628 1.1490 255 200 100
15.1364 -1.2262 0.1830 255 200 100
14.0098 -6.1610 0.2064 255 200 100
9.9719 -4.7142 -0.0274 255 200 100
11.7377 -0.9266 0.0701 255 200 100
14.4701 -4.4645 0.2043 255 200 100
9.4483 -1.8938 0.0043 255 200 100
7.8160 1.6203 0.0196 255 200 100
7.0327 2.3763 0.0095 255 200 100
9.0649 4.6537 -0.0641 255 200 100
15.5000 -4.4338 1.5079 255 200 100
15.3785 -0.3234 0.1610 255 200 100
9.2857 3.7974 -0.0451 255 200 100
21.6816 5.6585 0.8994 255 200 100
18.1552 3.9719 0.2323 255 200 100
11.1099 -4.9372 0.0323 255 200 100
18.3488 5.7627 0.1974 255 200 100
6.2488 1.4247 0.0143 255 200 100
21.4854 2.3765 1.3782 255 200 100
12.6920 -4.1780 0.1190 255 200 100
11.7751 -0.2338 0.0705 255 200 100
29.2481 17.7175 2.9159 255 200 100
23.2947 -11.9767 4.9113 255 200 100
23.7045 -4.3007 4.0115 255 200 100
24.4489 -11.5888 1.3277 255 200 100
18.3772 7.2722 0.1746 255 200 100
6.9987 2.5686 0.0020 255 200 100
7.2384 -1.7779 -0.0148 255 200 100
24.4956 -11.2753 1.9343 255 200 100
6.3392 2.8714 -0.0088 255 200 100
15.6824 -3.1201 1.1507 255 200 100
11.2651 6.3018 -0.0333 255 200 100
13.5066 3.1441 0.0583 255 200 100
10.2537 -3.3085 0.0067 255 200 100
7.2773 -1.2409 0.0058 255 200 100
10.2493 -3.3676 0.0045 255 200 100
24.1129 -8.7107 5.3709 255 200 100
12.1252 -6.0898 0.1150 255 200 100
16.1493 -0.8950 1.8441 255 200 100
11.6612 -2.8524 0.0377 255 200 100
15.0981 8.1722 0.0661 255 200 100
13.5267 2.4584 0.0674 255 200 100
11.8517 0.9716 0.0569 255 200 100
22.4175 6.4112 0.3466 255 200 100
24.6354 -10.6694 2.5261 255 200 100
24.1423 -8.2656 0.7437 255 200 100
22.2552 1.2134 1.8530 255 200 100
6.7809 0.8527 0.0194 255 200 100
15.3446 -0.4057 0.1646 255 200 100
16.0159 -1.3196 1.4913 255 200 100
16.5013 -5.9500 0.3262 255 200 100
7.6086 -3.2711 -0.0638 255 200 100
21.9688 4.2058 0.3833 255 200 100
7.8730 1.1307 0.0238 255 200 100
10.3182 -2.8473 0.0168 255 200 100
15.8328 -8.1093 0.3367 255 200 100
8.5461 1.5104 0.0269 255 200 100
15.3832 0.8536 0.1625 255 200 100
8.3199 -3.5163 -0.0578 255 200 100
10.4555 3.1104 -0.0009 255 200 100
14.8127 -3.1838 0.1933 255 200 100
9.4648 -1.2808 0.0213 255 200 100
28.7708 16.4688 4.3708 255 200 100
15.4551 5.5757 0.0976 255 200 100
12.6183 -4.6177 0.1131 255 200 100
7.5242 3.2031 -0.0167 255 200 100
10.4659 -0.9821 0.0474 255 200 100
23.6331 -10.6851 4.8534 255 200 100
7.2838 0.6607 0.0306 255 200 100
8.5973 0.4323 0.0372 255 200 100
25.3721 -8.7054 3.0962 255 200 100
29.7938 14.3614 2.0512 255 200 100
25.3575 -7.9125 2.4785 255 200 100
20.8587 2.9091 0.4614 255 200 100
6.7841 0.9582 0.0145 255 200 100
21.7317 1.4437 0.8844 255 200 100
34.1289 11.4603 4.4294 255 200 100
21.5357 0.7194 0.4124 255 200 100
28.8639 16.9591 4.4068 255 200 100
15.2742 7.3038 0.0735 255 200 100
9.4448 -1.9966 0.0009 255 200 100
12.5224 -4.9755 0.1120 255 200 100
23.5167 -11.1071 4.8705 255 200 100
25.4811 -3.4769 4.7389 255 200 100
31.9828 11.1452 3.5061 255 200 100
8.2045 3.7399 -0.0289 255 200 100
13.4571 0.5239 0.0925 255 200 100
22.6867 5.1259 0.8513 255 200 100
6.7845 -0.9329 0.0094 255 200 100
11.7716 -0.2982 0.0707 255 200 100
8.5857 0.2518 0.0409 255 200 100
11.8495 3.1454 0.0168 255 200 100
18.1388 3.8638 0.2346 255 200 100
6.8321 3.1737 -0.0148 255 200 100
15.4282 -4.8740 0.8022 255 200 100
28.2102 14.4477 4.9392 255 200 100
15.8027 -2.7942 1.8492 255 200 100
15.4644 2.7446 0.1425 255 200 100
12.8810 -3.1801 0.1241 255 200 100
7.2868 -1.2821 0.0011 255 200 100
8.4147 2.7063 -0.0002 255 200 100
8.1179 4.1292 -0.0445 255 200 100
15.4611 -4.6982 1.1562 255 200 100
25.1647 -8.9466 3.6999 255 200 100
24.9298 -5.5438 5.3162 255 200 100
8.5396 1.8823 0.0142 255 200 100
11.1241 -4.8714 0.0338 255 200 100
7.7710 -2.4119 -0.0296 255 200 100
15.2301 -0.7351 0.1760 255 200 100
24.8034 -10.0931 1.9140 255 200 100
11.5764 4.9741 -0.0104 255 200 100
13.5062 4.0113 0.0388 255 200 100
6.7977 -0.7608 0.0123 255 200 100
8.4281 -3.0992 -0.0482 255 200 100
8.5697 1.1035 0.0331 255 200 100
10.3906 3.7765 -0.0193 255 200 100
15.6587 -3.2950 1.1513 255 200 100
6.7728 -1.0691 0.0064 255 200 100
15.9739 -1.4880 1.1421 255 200 100
35.1907 12.2685 4.5309 255 200 100
15.4425 5.7666 0.0947 255 200 100
27.8881 13.6893 4.8627 255 200 100
19.4282 -9.6558 0.4730 255 200 100
30.4566 17.1878 0.5278 255 200 100
31.7840 12.4757 4.3268 255 200 100
7.8600 -1.4837 0.0049 255 200 100
29.9983 15.3745 0.5436 255 200 100
10.4630 -0.8706 0.0498 255 200 100
15.4757 2.8337 0.1403 255 200 100
7.5443 3.1658 -0.0182 255 200 100
23.7934 -9.9628 5.4153 255 200 100
31.9112 11.2438 5.8221 255 200 100
15.6740 -4.7660 0.7865 255 200 100
15.8263 -2.6196 1.8483 255 200 100
15.0365 -1.8808 0.1877 255 200 100
8.6045 -0.1035 0.0360 255 200 100
23.9865 -9.2737 4.8014 255 200 100
15.8531 -2.1788 1.4948 255 200 100
10.4960 0.9684 0.0479 255 200 100
12.9884 6.7759 0.0121 255 200 100
9.3355 3.3591 -0.0280 255 200 100
29.7090 14.1135 2.0457 255 200 100
18.3870 11.0197 0.1040 255 200 100
12.2308 -5.8137 0.1143 255 200 100
13.4598 0.5964 0.0921 255 200 100
13.4818 4.5742 0.0267 255 200 100
15.3741 0.6003 0.1637 255 200 100
7.2372 -1.8171 -0.0171 255 200 100
15.4844 3.1001 0.1363 255 200 100
7.1368 -2.3515 -0.0316 255 200 100
13.4336 4.9745 0.0210 255 200 100
9.4480 -1.6342 0.0138 255 200 100
8.5660 1.1945 0.0317 255 200 100
8.2240 3.6969 -0.0295 255 200 100
28.4698 15.6859 3.5624 255 200 100
24.4593 -7.4717 4.7573 255 200 100
17.3728 -2.3912 0.2990 255 200 100
15.5099 3.4586 0.1290 255 200 100
7.8556 -1.7811 -0.0095 255 200 100
25.8875 -6.0634 3.0556 255 200 100
15.9534 -1.9342 1.8455 255 200 100
25.9398 -5.9245 3.6572 255 200 100
16.0514 -1.4150 1.8444 255 200 100
16.1978 -6.9781 0.3316 255 200 100
9.4354 1.3660 0.0335 255 200 100
10.4718 3.0530 -0.0016 255 200 100
11.4290 -3.5232 0.0499 255 200 100
21.4179 2.0116 1.3778 255 200 100
28.7340 16.5126 2.8615 255 200 100
33.5172 -1.9490 4.1275 255 200 100
13.1436 -1.7698 0.1186 255 200 100
30.8791 14.8092 4.3915 255 200 100
6.7840 0.6800 0.0238 255 200 100
6.7500 1.1983 0.0143 255 200 100
7.6985 -2.8877 -0.0501 255 200 100
16.0993 -1.1388 0.4275 255 200 100
19.4728 -9.5479 0.4715 255 200 100
6.3473 0.3771 0.0281 255 200 100
8.3756 2.8404 0.0002 255 200 100
9.4215 1.6688 0.0285 255 200 100
11.7150 4.2980 -0.0023 255 200 100
29.0244 10.9185 0.5753 255 200 100
15.7518 -2.7840 1.4977 255 200 100
25.0667 -9.0746 1.8986 255 200 100
16.0566 -1.0559 1.1396 255 200 100
13.8654 -6.5605 0.2087 255 200 100
27.9773 13.7654 4.1657 255 200 100
24.9110 -9.8155 1.3045 255 200 100
15.6755 -3.2099 1.1507 255 200 100
25.0799 -5.0011 5.3165 255 200 100
7.1510 1.9356 0.0106 255 200 100
29.1930 17.9095 2.9230 255 200 100
7.2462 1.3745 0.0165 255 200 100
7.3113 -0.5650 0.0211 255 200 100
9.4442 1.1134 0.0369 255 200 100
8.5206 2.0648 0.0104 255 200 100
15.0155 -1.9607 0.1891 255 200 100
9.1308 -4.2156 -0.0698 255 200 100
31.6300 -3.2530 3.2810 255 200 100
20.9329 3.2566 1.3966 255 200 100
18.0226 3.0121 0.2506 255 200 100
