ply
format ascii 1.0
element vertex 1461
property float x
property float y
property float z
property uchar red
property uchar green
property uchar blue
end_header
17.8114 -5.7359 0.1471 255 40 40
17.8278 -5.7379 0.1471 255 40 40
17.8278 -5.7379 0.1471 255 40 40
17.8321 -5.7038 0.1471 255 40 40
17.8364 -5.6696 0.1471 255 40 40
17.8407 -5.6355 0.1471 255 40 40
17.8449 -5.6014 0.1471 255 40 40
17.8492 -5.5672 0.1471 255 40 40
17.8535 -5.5331 0.1471 255 40 40
17.8577 -5.4989 0.1471 255 40 40
17.8620 -5.4648 0.1471 255 40 40
17.8663 -5.4306 0.1471 255 40 40
17.8706 -5.3965 0.1471 255 40 40
17.8748 -5.3623 0.1471 255 40 40
17.8791 -5.3282 0.1471 255 40 40
17.8834 -5.2940 0.1471 255 40 40
17.8877 -5.2599 0.1471 255 40 40
17.8919 -5.2257 0.1471 255 40 40
17.8962 -5.1916 0.1471 255 40 40
17.9005 -5.1574 0.1471 255 40 40
17.9047 -5.1233 0.1471 255 40 40
17.9090 -5.0891 0.1471 255 40 40
17.9133 -5.0550 0.1471 255 40 40
17.9176 -5.0208 0.1471 255 40 40
17.9218 -4.9867 0.1471 255 40 40
17.9261 -4.9525 0.1471 255 40 40
17.9304 -4.9184 0.1471 255 40 40
17.9347 -4.8842 0.1471 255 40 40
17.9389 -4.8501 0.1471 255 40 40
17.9432 -4.8159 0.1471 255 40 40
17.9475 -4.7818 0.1471 255 40 40
17.9517 -4.7476 0.1471 255 40 40
17.9560 -4.7135 0.1471 255 40 40
17.9603 -4.6793 0.1471 255 40 40
17.9646 -4.6452 0.1471 255 40 40
17.9688 -4.6110 0.1471 255 40 40
17.9731 -4.5769 0.1471 255 40 40
17.9774 -4.5428 0.1471 255 40 40
17.9817 -4.5086 0.1471 255 40 40
17.9859 -4.4745 0.1471 255 40 40
17.9902 -4.4403 0.1471 255 40 40
17.9945 -4.4062 0.1471 255 40 40
17.9988 -4.3720 0.1471 255 40 40
18.0030 -4.3379 0.1471 255 40 40
18.0073 -4.3037 0.1471 255 40 40
18.0116 -4.2696 0.1471 255 40 40
18.0158 -4.2354 0.1471 255 40 40
18.0201 -4.2013 0.1471 255 40 40
18.0244 -4.1671 0.1471 255 40 40
18.0287 -4.1330 0.1471 255 40 40
18.0329 -4.0988 0.1471 255 40 40
18.0372 -4.0647 0.1471 255 40 40
18.0415 -4.0305 0.1471 255 40 40
18.0458 -3.9964 0.1471 255 40 40
18.0500 -3.9622 0.1471 255 40 40
18.0543 -3.9281 0.1471 255 40 40
18.0586 -3.8939 0.1471 255 40 40
18.0629 -3.8598 0.1471 255 40 40
18.0671 -3.8256 0.1471 255 40 40
18.0714 -3.7915 0.1471 255 40 40
18.0757 -3.7573 0.1471 255 40 40
18.0799 -3.7232 0.1471 255 40 40
18.0842 -3.6890 0.1471 255 40 40
18.0885 -3.6549 0.1471 255 40 40
18.0928 -3.6207 0.1471 255 40 40
18.0970 -3.5866 0.1471 255 40 40
18.1013 -3.5524 0.1471 255 40 40
18.1056 -3.5183 0.1471 255 40 40
18.1099 -3.4842 0.1471 255 40 40
18.1141 -3.4500 0.1471 255 40 40
18.1184 -3.4159 0.1471 255 40 40
18.1227 -3.3817 0.1471 255 40 40
18.1269 -3.3476 0.1471 255 40 40
18.1312 -3.3134 0.1471 255 40 40
18.1355 -3.2793 0.1471 255 40 40
18.1398 -3.2451 0.1471 255 40 40
18.1440 -3.2110 0.1471 255 40 40
18.1483 -3.1768 0.1471 255 40 40
18.1526 -3.1427 0.1471 255 40 40
18.1569 -3.1085 0.1471 255 40 40
18.1611 -3.0744 0.1471 255 40 40
18.1654 -3.0402 0.1471 255 40 40
18.1697 -3.0061 0.1471 255 40 40
18.1740 -2.9719 0.1471 255 40 40
18.1782 -2.9378 0.1471 255 40 40
18.1825 -2.9036 0.1471 255 40 40
18.1868 -2.8695 0.1471 255 40 40
18.1910 -2.8353 0.1471 255 40 40
18.1953 -2.8012 0.1471 255 40 40
18.1996 -2.7670 0.1471 255 40 40
18.2039 -2.7329 0.1471 255 40 40
18.2081 -2.6987 0.1471 255 40 40
18.2124 -2.6646 0.1471 255 40 40
18.2167 -2.6304 0.1471 255 40 40
18.2210 -2.5963 0.1471 255 40 40
18.2252 -2.5621 0.1471 255 40 40
18.2295 -2.5280 0.1471 255 40 40
18.2338 -2.4938 0.1471 255 40 40
18.2380 -2.4597 0.1471 255 40 40
18.2423 -2.4255 0.1471 255 40 40
18.2466 -2.3914 0.1471 255 40 40
18.2509 -2.3573 0.1471 255 40 40
18.2551 -2.3231 0.1471 255 40 40
18.2594 -2.2890 0.1471 255 40 40
18.2637 -2.2548 0.1471 255 40 40
18.2680 -2.2207 0.1471 255 40 40
18.2722 -2.1865 0.1471 255 40 40
18.2765 -2.1524 0.1471 255 40 40
18.2808 -2.1182 0.1471 255 40 40
18.2850 -2.0841 0.1471 255 40 40
18.2893 -2.0499 0.1471 255 40 40
18.2936 -2.0158 0.1471 255 40 40
18.2979 -1.9816 0.1471 255 40 40
18.3021 -1.9475 0.1471 255 40 40
18.3064 -1.9133 0.1471 255 40 40
18.3107 -1.8792 0.1471 255 40 40
18.3150 -1.8450 0.1471 255 40 40
18.3192 -1.8109 0.1471 255 40 40
18.3235 -1.7767 0.1471 255 40 40
18.3278 -1.7426 0.1471 255 40 40
18.3321 -1.7084 0.1471 255 40 40
18.3363 -1.6743 0.1471 255 40 40
18.3406 -1.6401 0.1471 255 40 40
18.3449 -1.6060 0.1471 255 40 40
18.3491 -1.5718 0.1471 255 40 40
18.3534 -1.5377 0.1471 255 40 40
18.3577 -1.5035 0.1471 255 40 40
18.3620 -1.4694 0.1471 255 40 40
18.3662 -1.4352 0.1471 255 40 40
18.3705 -1.4011 0.1471 255 40 40
18.3748 -1.3669 0.1471 255 40 40
18.3791 -1.3328 0.1471 255 40 40
18.3833 -1.2987 0.1471 255 40 40
18.3876 -1.2645 0.1471 255 40 40
18.3919 -1.2304 0.1471 255 40 40
18.3962 -1.1962 0.1471 255 40 40
18.4004 -1.1621 0.1471 255 40 40
18.4047 -1.1279 0.1471 255 40 40
18.4090 -1.0938 0.1471 255 40 40
18.4132 -1.0596 0.1471 255 40 40
18.4175 -1.0255 0.1471 255 40 40
18.4218 -0.9913 0.1471 255 40 40
18.4261 -0.9572 0.1471 255 40 40
18.4303 -0.9230 0.1471 255 40 40
18.4346 -0.8889 0.1471 255 40 40
18.4389 -0.8547 0.1471 255 40 40
18.4432 -0.8206 0.1471 255 40 40
18.4474 -0.7864 0.1471 255 40 40
18.4517 -0.7523 0.1471 255 40 40
18.4560 -0.7181 0.1471 255 40 40
18.4602 -0.6840 0.1471 255 40 40
18.4645 -0.6498 0.1471 255 40 40
18.4688 -0.6157 0.1471 255 40 40
18.4731 -0.5815 0.1471 255 40 40
18.4773 -0.5474 0.1471 255 40 40
18.4816 -0.5132 0.1471 255 40 40
18.4859 -0.4791 0.1471 255 40 40
18.4902 -0.4449 0.1471 255 40 40
18.4944 -0.4108 0.1471 255 40 40
18.4987 -0.3766 0.1471 255 40 40
18.5030 -0.3425 0.1471 255 40 40
18.5072 -0.3083 0.1471 255 40 40
18.5115 -0.2742 0.1471 255 40 40
18.5158 -0.2401 0.1471 255 40 40
18.5201 -0.2059 0.1471 255 40 40
18.5243 -0.1718 0.1471 255 40 40
18.5286 -0.1376 0.1471 255 40 40
18.5329 -0.1035 0.1471 255 40 40
18.5329 -0.1035 0.1471 255 40 40
18.5164 -0.1014 0.1471 255 40 40
18.5000 -0.0993 0.1471 255 40 40
18.4835 -0.0973 0.1471 255 40 40
18.4671 -0.0952 0.1471 255 40 40
18.4506 -0.0932 0.1471 255 40 40
18.4342 -0.0911 0.1471 255 40 40
18.4177 -0.0891 0.1471 255 40 40
18.4013 -0.0870 0.1471 255 40 40
18.3849 -0.0849 0.1471 255 40 40
18.3684 -0.0829 0.1471 255 40 40
18.3520 -0.0808 0.1471 255 40 40
18.3355 -0.0788 0.1471 255 40 40
18.3191 -0.0767 0.1471 255 40 40
18.3026 -0.0746 0.1471 255 40 40
18.2862 -0.0726 0.1471 255 40 40
18.2697 -0.0705 0.1471 255 40 40
18.2533 -0.0685 0.1471 255 40 40
18.2368 -0.0664 0.1471 255 40 40
18.2204 -0.0644 0.1471 255 40 40
18.2039 -0.0623 0.1471 255 40 40
18.1875 -0.0602 0.1471 255 40 40
18.1710 -0.0582 0.1471 255 40 40
18.1546 -0.0561 0.1471 255 40 40
18.1381 -0.0541 0.1471 255 40 40
18.1217 -0.0520 0.1471 255 40 40
18.1052 -0.0499 0.1471 255 40 40
18.0888 -0.0479 0.1471 255 40 40
18.0723 -0.0458 0.1471 255 40 40
18.0559 -0.0438 0.1471 255 40 40
18.0394 -0.0417 0.1471 255 40 40
18.0230 -0.0397 0.1471 255 40 40
18.0065 -0.0376 0.1471 255 40 40
17.9901 -0.0355 0.1471 255 40 40
17.9736 -0.0335 0.1471 255 40 40
17.9572 -0.0314 0.1471 255 40 40
17.9407 -0.0294 0.1471 255 40 40
17.9243 -0.0273 0.1471 255 40 40
17.9078 -0.0252 0.1471 255 40 40
17.8914 -0.0232 0.1471 255 40 40
17.8749 -0.0211 0.1471 255 40 40
17.8585 -0.0191 0.1471 255 40 40
17.8421 -0.0170 0.1471 255 40 40
17.8256 -0.0150 0.1471 255 40 40
17.8092 -0.0129 0.1471 255 40 40
17.7927 -0.0108 0.1471 255 40 40
17.7763 -0.0088 0.1471 255 40 40
17.7598 -0.0067 0.1471 255 40 40
17.7434 -0.0047 0.1471 255 40 40
17.7269 -0.0026 0.1471 255 40 40
17.7105 -0.0005 0.1471 255 40 40
17.6940 0.0015 0.1471 255 40 40
17.6776 0.0036 0.1471 255 40 40
17.6611 0.0056 0.1471 255 40 40
17.6447 0.0077 0.1471 255 40 40
17.6282 0.0097 0.1471 255 40 40
17.6118 0.0118 0.1471 255 40 40
17.5953 0.0139 0.1471 255 40 40
17.5789 0.0159 0.1471 255 40 40
17.5624 0.0180 0.1471 255 40 40
17.5460 0.0200 0.1471 255 40 40
17.5295 0.0221 0.1471 255 40 40
17.5131 0.0242 0.1471 255 40 40
17.4966 0.0262 0.1471 255 40 40
17.4802 0.0283 0.1471 255 40 40
17.4637 0.0303 0.1471 255 40 40
17.4473 0.0324 0.1471 255 40 40
17.4308 0.0344 0.1471 255 40 40
17.4144 0.0365 0.1471 255 40 40
17.3979 0.0386 0.1471 255 40 40
17.3815 0.0406 0.1471 255 40 40
17.3650 0.0427 0.1471 255 40 40
17.3486 0.0447 0.1471 255 40 40
17.3321 0.0468 0.1471 255 40 40
17.3157 0.0489 0.1471 255 40 40
17.2993 0.0509 0.1471 255 40 40
17.2828 0.0530 0.1471 255 40 40
17.2664 0.0550 0.1471 255 40 40
17.2499 0.0571 0.1471 255 40 40
17.2335 0.0591 0.1471 255 40 40
17.2170 0.0612 0.1471 255 40 40
17.2006 0.0633 0.1471 255 40 40
17.1841 0.0653 0.1471 255 40 40
17.1677 0.0674 0.1471 255 40 40
17.1512 0.0694 0.1471 255 40 40
17.1348 0.0715 0.1471 255 40 40
17.1183 0.0736 0.1471 255 40 40
17.1019 0.0756 0.1471 255 40 40
17.0854 0.0777 0.1471 255 40 40
17.0690 0.0797 0.1471 255 40 40
17.0525 0.0818 0.1471 255 40 40
17.0361 0.0838 0.1471 255 40 40
17.0196 0.0859 0.1471 255 40 40
17.0032 0.0880 0.1471 255 40 40
16.9867 0.0900 0.1471 255 40 40
16.9703 0.0921 0.1471 255 40 40
16.9538 0.0941 0.1471 255 40 40
16.9374 0.0962 0.1471 255 40 40
16.9209 0.0983 0.1471 255 40 40
16.9045 0.1003 0.1471 255 40 40
16.8880 0.1024 0.1471 255 40 40
16.8716 0.1044 0.1471 255 40 40
16.8551 0.1065 0.1471 255 40 40
16.8387 0.1085 0.1471 255 40 40
16.8222 0.1106 0.1471 255 40 40
16.8058 0.1127 0.1471 255 40 40
16.7893 0.1147 0.1471 255 40 40
16.7729 0.1168 0.1471 255 40 40
16.7565 0.1188 0.1471 255 40 40
16.7400 0.1209 0.1471 255 40 40
16.7236 0.1229 0.1471 255 40 40
16.7071 0.1250 0.1471 255 40 40
16.6907 0.1271 0.1471 255 40 40
16.6742 0.1291 0.1471 255 40 40
16.6578 0.1312 0.1471 255 40 40
16.6413 0.1332 0.1471 255 40 40
16.6249 0.1353 0.1471 255 40 40
16.6084 0.1374 0.1471 255 40 40
16.5920 0.1394 0.1471 255 40 40
16.5755 0.1415 0.1471 255 40 40
16.5591 0.1435 0.1471 255 40 40
16.5426 0.1456 0.1471 255 40 40
16.5262 0.1476 0.1471 255 40 40
16.5097 0.1497 0.1471 255 40 40
16.4933 0.1518 0.1471 255 40 40
16.4768 0.1538 0.1471 255 40 40
16.4604 0.1559 0.1471 255 40 40
16.4439 0.1579 0.1471 255 40 40
16.4275 0.1600 0.1471 255 40 40
16.4110 0.1621 0.1471 255 40 40
16.3946 0.1641 0.1471 255 40 40
16.3781 0.1662 0.1471 255 40 40
16.3617 0.1682 0.1471 255 40 40
16.3452 0.1703 0.1471 255 40 40
16.3288 0.1723 0.1471 255 40 40
16.3123 0.1744 0.1471 255 40 40
16.2959 0.1765 0.1471 255 40 40
16.2794 0.1785 0.1471 255 40 40
16.2630 0.1806 0.1471 255 40 40
16.2465 0.1826 0.1471 255 40 40
16.2301 0.1847 0.1471 255 40 40
16.2136 0.1868 0.1471 255 40 40
16.1972 0.1888 0.1471 255 40 40
16.1808 0.1909 0.1471 255 40 40
16.1643 0.1929 0.1471 255 40 40
16.1479 0.1950 0.1471 255 40 40
16.1314 0.1970 0.1471 255 40 40
16.1150 0.1991 0.1471 255 40 40
16.0985 0.2012 0.1471 255 40 40
16.0821 0.2032 0.1471 255 40 40
16.0656 0.2053 0.1471 255 40 40
16.0492 0.2073 0.1471 255 40 40
16.0327 0.2094 0.1471 255 40 40
16.0163 0.2115 0.1471 255 40 40
15.9998 0.2135 0.1471 255 40 40
15.9834 0.2156 0.1471 255 40 40
15.9669 0.2176 0.1471 255 40 40
15.9505 0.2197 0.1471 255 40 40
15.9340 0.2217 0.1471 255 40 40
15.9176 0.2238 0.1471 255 40 40
15.9011 0.2259 0.1471 255 40 40
15.8847 0.2279 0.1471 255 40 40
15.8682 0.2300 0.1471 255 40 40
15.8518 0.2320 0.1471 255 40 40
15.8353 0.2341 0.1471 255 40 40
15.8189 0.2362 0.1471 255 40 40
15.8189 0.2362 2.3792 255 40 40
15.8146 0.2020 2.3792 255 40 40
15.8103 0.1679 2.3792 255 40 40
15.8061 0.1337 2.3792 255 40 40
15.8018 0.0996 2.3792 255 40 40
15.7975 0.0654 2.3792 255 40 40
15.7932 0.0313 2.3792 255 40 40
15.7890 -0.0029 2.3792 255 40 40
15.7847 -0.0370 2.3792 255 40 40
15.7804 -0.0712 2.3792 255 40 40
15.7762 -0.1053 2.3792 255 40 40
15.7719 -0.1395 2.3792 255 40 40
15.7676 -0.1736 2.3792 255 40 40
15.7633 -0.2078 2.3792 255 40 40
15.7591 -0.2419 2.3792 255 40 40
15.7548 -0.2761 2.3792 255 40 40
15.7505 -0.3102 2.3792 255 40 40
15.7462 -0.3444 2.3792 255 40 40
15.7420 -0.3785 2.3792 255 40 40
15.7377 -0.4127 2.3792 255 40 40
15.7334 -0.4468 2.3792 255 40 40
15.7292 -0.4810 2.3792 255 40 40
15.7249 -0.5151 2.3792 255 40 40
15.7206 -0.5493 2.3792 255 40 40
15.7163 -0.5834 2.3792 255 40 40
15.7121 -0.6176 2.3792 255 40 40
15.7078 -0.6517 2.3792 255 40 40
15.7035 -0.6859 2.3792 255 40 40
15.6992 -0.7200 2.3792 255 40 40
15.6950 -0.7542 2.3792 255 40 40
15.6907 -0.7883 2.3792 255 40 40
15.6864 -0.8224 2.3792 255 40 40
15.6821 -0.8566 2.3792 255 40 40
15.6779 -0.8907 2.3792 255 40 40
15.6736 -0.9249 2.3792 255 40 40
15.6693 -0.9590 2.3792 255 40 40
15.6651 -0.9932 2.3792 255 40 40
15.6608 -1.0273 2.3792 255 40 40
15.6565 -1.0615 2.3792 255 40 40
15.6522 -1.0956 2.3792 255 40 40
15.6480 -1.1298 2.3792 255 40 40
15.6437 -1.1639 2.3792 255 40 40
15.6394 -1.1981 2.3792 255 40 40
15.6351 -1.2322 2.3792 255 40 40
15.6309 -1.2664 2.3792 255 40 40
15.6266 -1.3005 2.3792 255 40 40
15.6223 -1.3347 2.3792 255 40 40
15.6181 -1.3688 2.3792 255 40 40
15.6138 -1.4030 2.3792 255 40 40
15.6095 -1.4371 2.3792 255 40 40
15.6052 -1.4713 2.3792 255 40 40
15.6010 -1.5054 2.3792 255 40 40
15.5967 -1.5396 2.3792 255 40 40
15.5924 -1.5737 2.3792 255 40 40
15.5881 -1.6079 2.3792 255 40 40
15.5839 -1.6420 2.3792 255 40 40
15.5796 -1.6762 2.3792 255 40 40
15.5753 -1.7103 2.3792 255 40 40
15.5710 -1.7445 2.3792 255 40 40
15.5668 -1.7786 2.3792 255 40 40
15.5625 -1.8128 2.3792 255 40 40
15.5582 -1.8469 2.3792 255 40 40
15.5540 -1.8810 2.3792 255 40 40
15.5497 -1.9152 2.3792 255 40 40
15.5454 -1.9493 2.3792 255 40 40
15.5411 -1.9835 2.3792 255 40 40
15.5369 -2.0176 2.3792 255 40 40
15.5326 -2.0518 2.3792 255 40 40
15.5283 -2.0859 2.3792 255 40 40
15.5240 -2.1201 2.3792 255 40 40
15.5198 -2.1542 2.3792 255 40 40
15.5155 -2.1884 2.3792 255 40 40
15.5112 -2.2225 2.3792 255 40 40
15.5070 -2.2567 2.3792 255 40 40
15.5027 -2.2908 2.3792 255 40 40
15.4984 -2.3250 2.3792 255 40 40
15.4941 -2.3591 2.3792 255 40 40
15.4899 -2.3933 2.3792 255 40 40
15.4856 -2.4274 2.3792 255 40 40
15.4813 -2.4616 2.3792 255 40 40
15.4770 -2.4957 2.3792 255 40 40
15.4728 -2.5299 2.3792 255 40 40
15.4685 -2.5640 2.3792 255 40 40
15.4642 -2.5982 2.3792 255 40 40
15.4599 -2.6323 2.3792 255 40 40
15.4557 -2.6665 2.3792 255 40 40
15.4514 -2.7006 2.3792 255 40 40
15.4471 -2.7348 2.3792 255 40 40
15.4429 -2.7689 2.3792 255 40 40
15.4386 -2.8031 2.3792 255 40 40
15.4343 -2.8372 2.3792 255 40 40
15.4300 -2.8714 2.3792 255 40 40
15.4258 -2.9055 2.3792 255 40 40
15.4215 -2.9396 2.3792 255 40 40
15.4172 -2.9738 2.3792 255 40 40
15.4129 -3.0079 2.3792 255 40 40
15.4087 -3.0421 2.3792 255 40 40
15.4044 -3.0762 2.3792 255 40 40
15.4001 -3.1104 2.3792 255 40 40
15.3959 -3.1445 2.3792 255 40 40
15.3916 -3.1787 2.3792 255 40 40
15.3873 -3.2128 2.3792 255 40 40
15.3830 -3.2470 2.3792 255 40 40
15.3788 -3.2811 2.3792 255 40 40
15.3745 -3.3153 2.3792 255 40 40
15.3702 -3.3494 2.3792 255 40 40
15.3659 -3.3836 2.3792 255 40 40
15.3617 -3.4177 2.3792 255 40 40
15.3574 -3.4519 2.3792 255 40 40
15.3531 -3.4860 2.3792 255 40 40
15.3488 -3.5202 2.3792 255 40 40
15.3446 -3.5543 2.3792 255 40 40
15.3403 -3.5885 2.3792 255 40 40
15.3360 -3.6226 2.3792 255 40 40
15.3318 -3.6568 2.3792 255 40 40
15.3275 -3.6909 2.3792 255 40 40
15.3232 -3.7251 2.3792 255 40 40
15.3189 -3.7592 2.3792 255 40 40
15.3147 -3.7934 2.3792 255 40 40
15.3104 -3.8275 2.3792 255 40 40
15.3061 -3.8617 2.3792 255 40 40
15.3018 -3.8958 2.3792 255 40 40
15.2976 -3.9300 2.3792 255 40 40
15.2933 -3.9641 2.3792 255 40 40
15.2890 -3.9983 2.3792 255 40 40
15.2848 -4.0324 2.3792 255 40 40
15.2805 -4.0665 2.3792 255 40 40
15.2762 -4.1007 2.3792 255 40 40
15.2719 -4.1348 2.3792 255 40 40
15.2677 -4.1690 2.3792 255 40 40
15.2634 -4.2031 2.3792 255 40 40
15.2591 -4.2373 2.3792 255 40 40
15.2548 -4.2714 2.3792 255 40 40
15.2506 -4.3056 2.3792 255 40 40
15.2463 -4.3397 2.3792 255 40 40
15.2420 -4.3739 2.3792 255 40 40
15.2377 -4.4080 2.3792 255 40 40
15.2335 -4.4422 2.3792 255 40 40
15.2292 -4.4763 2.3792 255 40 40
15.2249 -4.5105 2.3792 255 40 40
15.2207 -4.5446 2.3792 255 40 40
15.2164 -4.5788 2.3792 255 40 40
15.2121 -4.6129 2.3792 255 40 40
15.2078 -4.6471 2.3792 255 40 40
15.2036 -4.6812 2.3792 255 40 40
15.1993 -4.7154 2.3792 255 40 40
15.1950 -4.7495 2.3792 255 40 40
15.1907 -4.7837 2.3792 255 40 40
15.1865 -4.8178 2.3792 255 40 40
15.1822 -4.8520 2.3792 255 40 40
15.1779 -4.8861 2.3792 255 40 40
15.1737 -4.9203 2.3792 255 40 40
15.1694 -4.9544 2.3792 255 40 40
15.1651 -4.9886 2.3792 255 40 40
15.1608 -5.0227 2.3792 255 40 40
15.1566 -5.0569 2.3792 255 40 40
15.1523 -5.0910 2.3792 255 40 40
15.1480 -5.1251 2.3792 255 40 40
15.1437 -5.1593 2.3792 255 40 40
15.1395 -5.1934 2.3792 255 40 40
15.1352 -5.2276 2.3792 255 40 40
15.1309 -5.2617 2.3792 255 40 40
15.1266 -5.2959 2.3792 255 40 40
15.1224 -5.3300 2.3792 255 40 40
15.1181 -5.3642 2.3792 255 40 40
15.1138 -5.3983 2.3792 255 40 40
15.1138 -5.3983 2.3792 255 40 40
15.1303 -5.4004 2.3792 255 40 40
15.1467 -5.4025 2.3792 255 40 40
15.1632 -5.4045 2.3792 255 40 40
15.1796 -5.4066 2.3792 255 40 40
15.1961 -5.4086 2.3792 255 40 40
15.2125 -5.4107 2.3792 255 40 40
15.2290 -5.4127 2.3792 255 40 40
15.2454 -5.4148 2.3792 255 40 40
15.2619 -5.4169 2.3792 255 40 40
15.2783 -5.4189 2.3792 255 40 40
15.2948 -5.4210 2.3792 255 40 40
15.3112 -5.4230 2.3792 255 40 40
15.3277 -5.4251 2.3792 255 40 40
15.3441 -5.4272 2.3792 255 40 40
15.3606 -5.4292 2.3792 255 40 40
15.3770 -5.4313 2.3792 255 40 40
15.3935 -5.4333 2.3792 255 40 40
15.4099 -5.4354 2.3792 255 40 40
15.4263 -5.4374 2.3792 255 40 40
15.4428 -5.4395 2.3792 255 40 40
15.4592 -5.4416 2.3792 255 40 40
15.4757 -5.4436 2.3792 255 40 40
15.4921 -5.4457 2.3792 255 40 40
15.5086 -5.4477 2.3792 255 40 40
15.5250 -5.4498 2.3792 255 40 40
15.5415 -5.4518 2.3792 255 40 40
15.5579 -5.4539 2.3792 255 40 40
15.5744 -5.4560 2.3792 255 40 40
15.5908 -5.4580 2.3792 255 40 40
15.6073 -5.4601 2.3792 255 40 40
15.6237 -5.4621 2.3792 255 40 40
15.6402 -5.4642 2.3792 255 40 40
15.6566 -5.4663 2.3792 255 40 40
15.6731 -5.4683 2.3792 255 40 40
15.6895 -5.4704 2.3792 255 40 40
15.7060 -5.4724 2.3792 255 40 40
15.7224 -5.4745 2.3792 255 40 40
15.7389 -5.4765 2.3792 255 40 40
15.7553 -5.4786 2.3792 255 40 40
15.7718 -5.4807 2.3792 255 40 40
15.7882 -5.4827 2.3792 255 40 40
15.8047 -5.4848 2.3792 255 40 40
15.8211 -5.4868 2.3792 255 40 40
15.8376 -5.4889 2.3792 255 40 40
15.8540 -5.4910 2.3792 255 40 40
15.8705 -5.4930 2.3792 255 40 40
15.8869 -5.4951 2.3792 255 40 40
15.9034 -5.4971 2.3792 255 40 40
15.9198 -5.4992 2.3792 255 40 40
15.9363 -5.5012 2.3792 255 40 40
15.9527 -5.5033 2.3792 255 40 40
15.9691 -5.5054 2.3792 255 40 40
15.9856 -5.5074 2.3792 255 40 40
16.0020 -5.5095 2.3792 255 40 40
16.0185 -5.5115 2.3792 255 40 40
16.0349 -5.5136 2.3792 255 40 40
16.0514 -5.5157 2.3792 255 40 40
16.0678 -5.5177 2.3792 255 40 40
16.0843 -5.5198 2.3792 255 40 40
16.1007 -5.5218 2.3792 255 40 40
16.1172 -5.5239 2.3792 255 40 40
16.1336 -5.5259 2.3792 255 40 40
16.1501 -5.5280 2.3792 255 40 40
16.1665 -5.5301 2.3792 255 40 40
16.1830 -5.5321 2.3792 255 40 40
16.1994 -5.5342 2.3792 255 40 40
16.2159 -5.5362 2.3792 255 40 40
16.2323 -5.5383 2.3792 255 40 40
16.2488 -5.5404 2.3792 255 40 40
16.2652 -5.5424 2.3792 255 40 40
16.2817 -5.5445 2.3792 255 40 40
16.2981 -5.5465 2.3792 255 40 40
16.3146 -5.5486 2.3792 255 40 40
16.3310 -5.5506 2.3792 255 40 40
16.3475 -5.5527 2.3792 255 40 40
16.3639 -5.5548 2.3792 255 40 40
16.3804 -5.5568 2.3792 255 40 40
16.3968 -5.5589 2.3792 255 40 40
16.4133 -5.5609 2.3792 255 40 40
16.4297 -5.5630 2.3792 255 40 40
16.4462 -5.5651 2.3792 255 40 40
16.4626 -5.5671 2.3792 255 40 40
16.4791 -5.5692 2.3792 255 40 40
16.4955 -5.5712 2.3792 255 40 40
16.5120 -5.5733 2.3792 255 40 40
16.5284 -5.5753 2.3792 255 40 40
16.5448 -5.5774 2.3792 255 40 40
16.5613 -5.5795 2.3792 255 40 40
16.5777 -5.5815 2.3792 255 40 40
16.5942 -5.5836 2.3792 255 40 40
16.6106 -5.5856 2.3792 255 40 40
16.6271 -5.5877 2.3792 255 40 40
16.6435 -5.5898 2.3792 255 40 40
16.6600 -5.5918 2.3792 255 40 40
16.6764 -5.5939 2.3792 255 40 40
16.6929 -5.5959 2.3792 255 40 40
16.7093 -5.5980 2.3792 255 40 40
16.7258 -5.6000 2.3792 255 40 40
16.7422 -5.6021 2.3792 255 40 40
16.7587 -5.6042 2.3792 255 40 40
16.7751 -5.6062 2.3792 255 40 40
16.7916 -5.6083 2.3792 255 40 40
16.8080 -5.6103 2.3792 255 40 40
16.8245 -5.6124 2.3792 255 40 40
16.8409 -5.6145 2.3792 255 40 40
16.8574 -5.6165 2.3792 255 40 40
16.8738 -5.6186 2.3792 255 40 40
16.8903 -5.6206 2.3792 255 40 40
16.9067 -5.6227 2.3792 255 40 40
16.9232 -5.6247 2.3792 255 40 40
16.9396 -5.6268 2.3792 255 40 40
16.9561 -5.6289 2.3792 255 40 40
16.9725 -5.6309 2.3792 255 40 40
16.9890 -5.6330 2.3792 255 40 40
17.0054 -5.6350 2.3792 255 40 40
17.0219 -5.6371 2.3792 255 40 40
17.0383 -5.6391 2.3792 255 40 40
17.0548 -5.6412 2.3792 255 40 40
17.0712 -5.6433 2.3792 255 40 40
17.0876 -5.6453 2.3792 255 40 40
17.1041 -5.6474 2.3792 255 40 40
17.1205 -5.6494 2.3792 255 40 40
17.1370 -5.6515 2.3792 255 40 40
17.1534 -5.6536 2.3792 255 40 40
17.1699 -5.6556 2.3792 255 40 40
17.1863 -5.6577 2.3792 255 40 40
17.2028 -5.6597 2.3792 255 40 40
17.2192 -5.6618 2.3792 255 40 40
17.2357 -5.6638 2.3792 255 40 40
17.2521 -5.6659 2.3792 255 40 40
17.2686 -5.6680 2.3792 255 40 40
17.2850 -5.6700 2.3792 255 40 40
17.3015 -5.6721 2.3792 255 40 40
17.3179 -5.6741 2.3792 255 40 40
17.3344 -5.6762 2.3792 255 40 40
17.3508 -5.6783 2.3792 255 40 40
17.3673 -5.6803 2.3792 255 40 40
17.3837 -5.6824 2.3792 255 40 40
17.4002 -5.6844 2.3792 255 40 40
17.4166 -5.6865 2.3792 255 40 40
17.4331 -5.6885 2.3792 255 40 40
17.4495 -5.6906 2.3792 255 40 40
17.4660 -5.6927 2.3792 255 40 40
17.4824 -5.6947 2.3792 255 40 40
17.4989 -5.6968 2.3792 255 40 40
17.5153 -5.6988 2.3792 255 40 40
17.5318 -5.7009 2.3792 255 40 40
17.5482 -5.7030 2.3792 255 40 40
17.5647 -5.7050 2.3792 255 40 40
17.5811 -5.7071 2.3792 255 40 40
17.5976 -5.7091 2.3792 255 40 40
17.6140 -5.7112 2.3792 255 40 40
17.6304 -5.7132 2.3792 255 40 40
17.6469 -5.7153 2.3792 255 40 40
17.6633 -5.7174 2.3792 255 40 40
17.6798 -5.7194 2.3792 255 40 40
17.6962 -5.7215 2.3792 255 40 40
17.7127 -5.7235 2.3792 255 40 40
17.7291 -5.7256 2.3792 255 40 40
17.7456 -5.7277 2.3792 255 40 40
17.7620 -5.7297 2.3792 255 40 40
17.7785 -5.7318 2.3792 255 40 40
17.7949 -5.7338 2.3792 255 40 40
17.8114 -5.7359 2.3792 255 40 40
17.8278 -5.7379 2.3792 255 40 40
17.8278 -5.7379 2.3792 255 40 40
17.8321 -5.7038 2.3792 255 40 40
17.8364 -5.6696 2.3792 255 40 40
17.8407 -5.6355 2.3792 255 40 40
17.8449 -5.6014 2.3792 255 40 40
17.8492 -5.5672 2.3792 255 40 40
17.8535 -5.5331 2.3792 255 40 40
17.8577 -5.4989 2.3792 255 40 40
17.8620 -5.4648 2.3792 255 40 40
17.8663 -5.4306 2.3792 255 40 40
17.8706 -5.3965 2.3792 255 40 40
17.8748 -5.3623 2.3792 255 40 40
17.8791 -5.3282 2.3792 255 40 40
17.8834 -5.2940 2.3792 255 40 40
17.8877 -5.2599 2.3792 255 40 40
17.8919 -5.2257 2.3792 255 40 40
17.8962 -5.1916 2.3792 255 40 40
17.9005 -5.1574 2.3792 255 40 40
17.9047 -5.1233 2.3792 255 40 40
17.9090 -5.0891 2.3792 255 40 40
17.9133 -5.0550 2.3792 255 40 40
17.9176 -5.0208 2.3792 255 40 40
17.9218 -4.9867 2.3792 255 40 40
17.9261 -4.9525 2.3792 255 40 40
17.9304 -4.9184 2.3792 255 40 40
17.9347 -4.8842 2.3792 255 40 40
17.9389 -4.8501 2.3792 255 40 40
17.9432 -4.8159 2.3792 255 40 40
17.9475 -4.7818 2.3792 255 40 40
17.9517 -4.7476 2.3792 255 40 40
17.9560 -4.7135 2.3792 255 40 40
17.9603 -4.6793 2.3792 255 40 40
17.9646 -4.6452 2.3792 255 40 40
17.9688 -4.6110 2.3792 255 40 40
17.9731 -4.5769 2.3792 255 40 40
17.9774 -4.5428 2.3792 255 40 40
17.9817 -4.5086 2.3792 255 40 40
17.9859 -4.4745 2.3792 255 40 40
17.9902 -4.4403 2.3792 255 40 40
17.9945 -4.4062 2.3792 255 40 40
17.9988 -4.3720 2.3792 255 40 40
18.0030 -4.3379 2.3792 255 40 40
18.0073 -4.3037 2.3792 255 40 40
18.0116 -4.2696 2.3792 255 40 40
18.0158 -4.2354 2.3792 255 40 40
18.0201 -4.2013 2.3792 255 40 40
18.0244 -4.1671 2.3792 255 40 40
18.0287 -4.1330 2.3792 255 40 40
18.0329 -4.0988 2.3792 255 40 40
18.0372 -4.0647 2.3792 255 40 40
18.0415 -4.0305 2.3792 255 40 40
18.0458 -3.9964 2.3792 255 40 40
18.0500 -3.9622 2.3792 255 40 40
18.0543 -3.9281 2.3792 255 40 40
18.0586 -3.8939 2.3792 255 40 40
18.0629 -3.8598 2.3792 255 40 40
18.0671 -3.8256 2.3792 255 40 40
18.0714 -3.7915 2.3792 255 40 40
18.0757 -3.7573 2.3792 255 40 40
18.0799 -3.7232 2.3792 255 40 40
18.0842 -3.6890 2.3792 255 40 40
18.0885 -3.6549 2.3792 255 40 40
18.0928 -3.6207 2.3792 255 40 40
18.0970 -3.5866 2.3792 255 40 40
18.1013 -3.5524 2.3792 255 40 40
18.1056 -3.5183 2.3792 255 40 40
18.1099 -3.4842 2.3792 255 40 40
18.1141 -3.4500 2.3792 255 40 40
18.1184 -3.4159 2.3792 255 40 40
18.1227 -3.3817 2.3792 255 40 40
18.1269 -3.3476 2.3792 255 40 40
18.1312 -3.3134 2.3792 255 40 40
18.1355 -3.2793 2.3792 255 40 40
18.1398 -3.2451 2.3792 255 40 40
18.1440 -3.2110 2.3792 255 40 40
18.1483 -3.1768 2.3792 255 40 40
18.1526 -3.1427 2.3792 255 40 40
18.1569 -3.1085 2.3792 255 40 40
18.1611 -3.0744 2.3792 255 40 40
18.1654 -3.0402 2.3792 255 40 40
18.1697 -3.0061 2.3792 255 40 40
18.1740 -2.9719 2.3792 255 40 40
18.1782 -2.9378 2.3792 255 40 40
18.1825 -2.9036 2.3792 255 40 40
18.1868 -2.8695 2.3792 255 40 40
18.1910 -2.8353 2.3792 255 40 40
18.1953 -2.8012 2.3792 255 40 40
18.1996 -2.7670 2.3792 255 40 40
18.2039 -2.7329 2.3792 255 40 40
18.2081 -2.6987 2.3792 255 40 40
18.2124 -2.6646 2.3792 255 40 40
18.2167 -2.6304 2.3792 255 40 40
18.2210 -2.5963 2.3792 255 40 40
18.2252 -2.5621 2.3792 255 40 40
18.2295 -2.5280 2.3792 255 40 40
18.2338 -2.4938 2.3792 255 40 40
18.2380 -2.4597 2.3792 255 40 40
18.2423 -2.4255 2.3792 255 40 40
18.2466 -2.3914 2.3792 255 40 40
18.2509 -2.3573 2.3792 255 40 40
18.2551 -2.3231 2.3792 255 40 40
18.2594 -2.2890 2.3792 255 40 40
18.2637 -2.2548 2.3792 255 40 40
18.2680 -2.2207 2.3792 255 40 40
18.2722 -2.1865 2.3792 255 40 40
18.2765 -2.1524 2.3792 255 40 40
18.2808 -2.1182 2.3792 255 40 40
18.2850 -2.0841 2.3792 255 40 40
18.2893 -2.0499 2.3792 255 40 40
18.2936 -2.0158 2.3792 255 40 40
18.2979 -1.9816 2.3792 255 40 40
18.3021 -1.9475 2.3792 255 40 40
18.3064 -1.9133 2.3792 255 40 40
18.3107 -1.8792 2.3792 255 40 40
18.3150 -1.8450 2.3792 255 40 40
18.3192 -1.8109 2.3792 255 40 40
18.3235 -1.7767 2.3792 255 40 40
18.3278 -1.7426 2.3792 255 40 40
18.3321 -1.7084 2.3792 255 40 40
18.3363 -1.6743 2.3792 255 40 40
18.3406 -1.6401 2.3792 255 40 40
18.3449 -1.6060 2.3792 255 40 40
18.3491 -1.5718 2.3792 255 40 40
18.3534 -1.5377 2.3792 255 40 40
18.3577 -1.5035 2.3792 255 40 40
18.3620 -1.4694 2.3792 255 40 40
18.3662 -1.4352 2.3792 255 40 40
18.3705 -1.4011 2.3792 255 40 40
18.3748 -1.3669 2.3792 255 40 40
18.3791 -1.3328 2.3792 255 40 40
18.3833 -1.2987 2.3792 255 40 40
18.3876 -1.2645 2.3792 255 40 40
18.3919 -1.2304 2.3792 255 40 40
18.3962 -1.1962 2.3792 255 40 40
18.4004 -1.1621 2.3792 255 40 40
18.4047 -1.1279 2.3792 255 40 40
18.4090 -1.0938 2.3792 255 40 40
18.4132 -1.0596 2.3792 255 40 40
18.4175 -1.0255 2.3792 255 40 40
18.4218 -0.9913 2.3792 255 40 40
18.4261 -0.9572 2.3792 255 40 40
18.4303 -0.9230 2.3792 255 40 40
18.4346 -0.8889 2.3792 255 40 40
18.4389 -0.8547 2.3792 255 40 40
18.4432 -0.8206 2.3792 255 40 40
18.4474 -0.7864 2.3792 255 40 40
18.4517 -0.7523 2.3792 255 40 40
18.4560 -0.7181 2.3792 255 40 40
18.4602 -0.6840 2.3792 255 40 40
18.4645 -0.6498 2.3792 255 40 40
18.4688 -0.6157 2.3792 255 40 40
18.4731 -0.5815 2.3792 255 40 40
18.4773 -0.5474 2.3792 255 40 40
18.4816 -0.5132 2.3792 255 40 40
18.4859 -0.4791 2.3792 255 40 40
18.4902 -0.4449 2.3792 255 40 40
18.4944 -0.4108 2.3792 255 40 40
18.4987 -0.3766 2.3792 255 40 40
18.5030 -0.3425 2.3792 255 40 40
18.5072 -0.3083 2.3792 255 40 40
18.5115 -0.2742 2.3792 255 40 40
18.5158 -0.2401 2.3792 255 40 40
18.5201 -0.2059 2.3792 255 40 40
18.5243 -0.1718 2.3792 255 40 40
18.5286 -0.1376 2.3792 255 40 40
18.5329 -0.1035 2.3792 255 40 40
18.5329 -0.1035 2.3792 255 40 40
18.5164 -0.1014 2.3792 255 40 40
18.5000 -0.0993 2.3792 255 40 40
18.4835 -0.0973 2.3792 255 40 40
18.4671 -0.0952 2.3792 255 40 40
18.4506 -0.0932 2.3792 255 40 40
18.4342 -0.0911 2.3792 255 40 40
18.4177 -0.0891 2.3792 255 40 40
18.4013 -0.0870 2.3792 255 40 40
18.3849 -0.0849 2.3792 255 40 40
18.3684 -0.0829 2.3792 255 40 40
18.3520 -0.0808 2.3792 255 40 40
18.3355 -0.0788 2.3792 255 40 40
18.3191 -0.0767 2.3792 255 40 40
18.3026 -0.0746 2.3792 255 40 40
18.2862 -0.0726 2.3792 255 40 40
18.2697 -0.0705 2.3792 255 40 40
18.2533 -0.0685 2.3792 255 40 40
18.2368 -0.0664 2.3792 255 40 40
18.2204 -0.0644 2.3792 255 40 40
18.2039 -0.0623 2.3792 255 40 40
18.1875 -0.0602 2.3792 255 40 40
18.1710 -0.0582 2.3792 255 40 40
18.1546 -0.0561 2.3792 255 40 40
18.1381 -0.0541 2.3792 255 40 40
18.1217 -0.0520 2.3792 255 40 40
18.1052 -0.0499 2.3792 255 40 40
18.0888 -0.0479 2.3792 255 40 40
18.0723 -0.0458 2.3792 255 40 40
18.0559 -0.0438 2.3792 255 40 40
18.0394 -0.0417 2.3792 255 40 40
18.0230 -0.0397 2.3792 255 40 40
18.0065 -0.0376 2.3792 255 40 40
17.9901 -0.0355 2.3792 255 40 40
17.9736 -0.0335 2.3792 255 40 40
17.9572 -0.0314 2.3792 255 40 40
17.9407 -0.0294 2.3792 255 40 40
17.9243 -0.0273 2.3792 255 40 40
17.9078 -0.0252 2.3792 255 40 40
17.8914 -0.0232 2.3792 255 40 40
17.8749 -0.0211 2.3792 255 40 40
17.8585 -0.0191 2.3792 255 40 40
17.8421 -0.0170 2.3792 255 40 40
17.8256 -0.0150 2.3792 255 40 40
17.8092 -0.0129 2.3792 255 40 40
17.7927 -0.0108 2.3792 255 40 40
17.7763 -0.0088 2.3792 255 40 40
17.7598 -0.0067 2.3792 255 40 40
17.7434 -0.0047 2.3792 255 40 40
17.7269 -0.0026 2.3792 255 40 40
17.7105 -0.0005 2.3792 255 40 40
17.6940 0.0015 2.3792 255 40 40
17.6776 0.0036 2.3792 255 40 40
17.6611 0.0056 2.3792 255 40 40
17.6447 0.0077 2.3792 255 40 40
17.6282 0.0097 2.3792 255 40 40
17.6118 0.0118 2.3792 255 40 40
17.5953 0.0139 2.3792 255 40 40
17.5789 0.0159 2.3792 255 40 40
17.5624 0.0180 2.3792 255 40 40
17.5460 0.0200 2.3792 255 40 40
17.5295 0.0221 2.3792 255 40 40
17.5131 0.0242 2.3792 255 40 40
17.4966 0.0262 2.3792 255 40 40
17.4802 0.0283 2.3792 255 40 40
17.4637 0.0303 2.3792 255 40 40
17.4473 0.0324 2.3792 255 40 40
17.4308 0.0344 2.3792 255 40 40
17.4144 0.0365 2.3792 255 40 40
17.3979 0.0386 2.3792 255 40 40
17.3815 0.0406 2.3792 255 40 40
17.3650 0.0427 2.3792 255 40 40
17.3486 0.0447 2.3792 255 40 40
17.3321 0.0468 2.3792 255 40 40
17.3157 0.0489 2.3792 255 40 40
17.2993 0.0509 2.3792 255 40 40
17.2828 0.0530 2.3792 255 40 40
17.2664 0.0550 2.3792 255 40 40
17.2499 0.0571 2.3792 255 40 40
17.2335 0.0591 2.3792 255 40 40
17.2170 0.0612 2.3792 255 40 40
17.2006 0.0633 2.3792 255 40 40
17.1841 0.0653 2.3792 255 40 40
17.1677 0.0674 2.3792 255 40 40
17.1512 0.0694 2.3792 255 40 40
17.1348 0.0715 2.3792 255 40 40
17.1183 0.0736 2.3792 255 40 40
17.1019 0.0756 2.3792 255 40 40
17.0854 0.0777 2.3792 255 40 40
17.0690 0.0797 2.3792 255 40 40
17.0525 0.0818 2.3792 255 40 40
17.0361 0.0838 2.3792 255 40 40
17.0196 0.0859 2.3792 255 40 40
17.0032 0.0880 2.3792 255 40 40
16.9867 0.0900 2.3792 255 40 40
16.9703 0.0921 2.3792 255 40 40
16.9538 0.0941 2.3792 255 40 40
16.9374 0.0962 2.3792 255 40 40
16.9209 0.0983 2.3792 255 40 40
16.9045 0.1003 2.3792 255 40 40
16.8880 0.1024 2.3792 255 40 40
16.8716 0.1044 2.3792 255 40 40
16.8551 0.1065 2.3792 255 40 40
16.8387 0.1085 2.3792 255 40 40
16.8222 0.1106 2.3792 255 40 40
16.8058 0.1127 2.3792 255 40 40
16.7893 0.1147 2.3792 255 40 40
16.7729 0.1168 2.3792 255 40 40
16.7565 0.1188 2.3792 255 40 40
16.7400 0.1209 2.3792 255 40 40
16.7236 0.1229 2.3792 255 40 40
16.7071 0.1250 2.3792 255 40 40
16.6907 0.1271 2.3792 255 40 40
16.6742 0.1291 2.3792 255 40 40
16.6578 0.1312 2.3792 255 40 40
16.6413 0.1332 2.3792 255 40 40
16.6249 0.1353 2.3792 255 40 40
16.6084 0.1374 2.3792 255 40 40
16.5920 0.1394 2.3792 255 40 40
16.5755 0.1415 2.3792 255 40 40
16.5591 0.1435 2.3792 255 40 40
16.5426 0.1456 2.3792 255 40 40
16.5262 0.1476 2.3792 255 40 40
16.5097 0.1497 2.3792 255 40 40
16.4933 0.1518 2.3792 255 40 40
16.4768 0.1538 2.3792 255 40 40
16.4604 0.1559 2.3792 255 40 40
16.4439 0.1579 2.3792 255 40 40
16.4275 0.1600 2.3792 255 40 40
16.4110 0.1621 2.3792 255 40 40
16.3946 0.1641 2.3792 255 40 40
16.3781 0.1662 2.3792 255 40 40
16.3617 0.1682 2.3792 255 40 40
16.3452 0.1703 2.3792 255 40 40
16.3288 0.1723 2.3792 255 40 40
16.3123 0.1744 2.3792 255 40 40
16.2959 0.1765 2.3792 255 40 40
16.2794 0.1785 2.3792 255 40 40
16.2630 0.1806 2.3792 255 40 40
16.2465 0.1826 2.3792 255 40 40
16.2301 0.1847 2.3792 255 40 40
16.2136 0.1868 2.3792 255 40 40
16.1972 0.1888 2.3792 255 40 40
16.1808 0.1909 2.3792 255 40 40
16.1643 0.1929 2.3792 255 40 40
16.1479 0.1950 2.3792 255 40 40
16.1314 0.1970 2.3792 255 40 40
16.1150 0.1991 2.3792 255 40 40
16.0985 0.2012 2.3792 255 40 40
16.0821 0.2032 2.3792 255 40 40
16.0656 0.2053 2.3792 255 40 40
16.0492 0.2073 2.3792 255 40 40
16.0327 0.2094 2.3792 255 40 40
16.0163 0.2115 2.3792 255 40 40
15.9998 0.2135 2.3792 255 40 40
15.9834 0.2156 2.3792 255 40 40
15.9669 0.2176 2.3792 255 40 40
15.9505 0.2197 2.3792 255 40 40
15.9340 0.2217 2.3792 255 40 40
15.9176 0.2238 2.3792 255 40 40
15.9011 0.2259 2.3792 255 40 40
15.8847 0.2279 2.3792 255 40 40
15.8682 0.2300 2.3792 255 40 40
15.8518 0.2320 2.3792 255 40 40
15.8353 0.2341 2.3792 255 40 40
15.8189 0.2362 2.3792 255 40 40
15.8189 0.2362 0.1471 255 40 40
15.8189 0.2362 0.1607 255 40 40
15.8189 0.2362 0.1742 255 40 40
15.8189 0.2362 0.1877 255 40 40
15.8189 0.2362 0.2013 255 40 40
15.8189 0.2362 0.2148 255 40 40
15.8189 0.2362 0.2283 255 40 40
15.8189 0.2362 0.2418 255 40 40
15.8189 0.2362 0.2554 255 40 40
15.8189 0.2362 0.2689 255 40 40
15.8189 0.2362 0.2824 255 40 40
15.8189 0.2362 0.2959 255 40 40
15.8189 0.2362 0.3095 255 40 40
15.8189 0.2362 0.3230 255 40 40
15.8189 0.2362 0.3365 255 40 40
15.8189 0.2362 0.3501 255 40 40
15.8189 0.2362 0.3636 255 40 40
15.8189 0.2362 0.3771 255 40 40
15.8189 0.2362 0.3906 255 40 40
15.8189 0.2362 0.4042 255 40 40
15.8189 0.2362 0.4177 255 40 40
15.8189 0.2362 0.4312 255 40 40
15.8189 0.2362 0.4447 255 40 40
15.8189 0.2362 0.4583 255 40 40
15.8189 0.2362 0.4718 255 40 40
15.8189 0.2362 0.4853 255 40 40
15.8189 0.2362 0.4989 255 40 40
15.8189 0.2362 0.5124 255 40 40
15.8189 0.2362 0.5259 255 40 40
15.8189 0.2362 0.5394 255 40 40
15.8189 0.2362 0.5530 255 40 40
15.8189 0.2362 0.5665 255 40 40
15.8189 0.2362 0.5800 255 40 40
15.8189 0.2362 0.5935 255 40 40
15.8189 0.2362 0.6071 255 40 40
15.8189 0.2362 0.6206 255 40 40
15.8189 0.2362 0.6341 255 40 40
15.8189 0.2362 0.6477 255 40 40
15.8189 0.2362 0.6612 255 40 40
15.8189 0.2362 0.6747 255 40 40
15.8189 0.2362 0.6882 255 40 40
15.8189 0.2362 0.7018 255 40 40
15.8189 0.2362 0.7153 255 40 40
15.8189 0.2362 0.7288 255 40 40
15.8189 0.2362 0.7423 255 40 40
15.8189 0.2362 0.7559 255 40 40
15.8189 0.2362 0.7694 255 40 40
15.8189 0.2362 0.7829 255 40 40
15.8189 0.2362 0.7965 255 40 40
15.8189 0.2362 0.8100 255 40 40
15.8189 0.2362 0.8235 255 40 40
15.8189 0.2362 0.8370 255 40 40
15.8189 0.2362 0.8506 255 40 40
15.8189 0.2362 0.8641 255 40 40
15.8189 0.2362 0.8776 255 40 40
15.8189 0.2362 0.8912 255 40 40
15.8189 0.2362 0.9047 255 40 40
15.8189 0.2362 0.9182 255 40 40
15.8189 0.2362 0.9317 255 40 40
15.8189 0.2362 0.9453 255 40 40
15.8189 0.2362 0.9588 255 40 40
15.8189 0.2362 0.9723 255 40 40
15.8189 0.2362 0.9858 255 40 40
15.8189 0.2362 0.9994 255 40 40
15.8189 0.2362 1.0129 255 40 40
15.8189 0.2362 1.0264 255 40 40
15.8189 0.2362 1.0400 255 40 40
15.8189 0.2362 1.0535 255 40 40
15.8189 0.2362 1.0670 255 40 40
15.8189 0.2362 1.0805 255 40 40
15.8189 0.2362 1.0941 255 40 40
15.8189 0.2362 1.1076 255 40 40
15.8189 0.2362 1.1211 255 40 40
15.8189 0.2362 1.1346 255 40 40
15.8189 0.2362 1.1482 255 40 40
15.8189 0.2362 1.1617 255 40 40
15.8189 0.2362 1.1752 255 40 40
15.8189 0.2362 1.1888 255 40 40
15.8189 0.2362 1.2023 255 40 40
15.8189 0.2362 1.2158 255 40 40
15.8189 0.2362 1.2293 255 40 40
15.8189 0.2362 1.2429 255 40 40
15.8189 0.2362 1.2564 255 40 40
15.8189 0.2362 1.2699 255 40 40
15.8189 0.2362 1.2834 255 40 40
15.8189 0.2362 1.2970 255 40 40
15.8189 0.2362 1.3105 255 40 40
15.8189 0.2362 1.3240 255 40 40
15.8189 0.2362 1.3376 255 40 40
15.8189 0.2362 1.3511 255 40 40
15.8189 0.2362 1.3646 255 40 40
15.8189 0.2362 1.3781 255 40 40
15.8189 0.2362 1.3917 255 40 40
15.8189 0.2362 1.4052 255 40 40
15.8189 0.2362 1.4187 255 40 40
15.8189 0.2362 1.4322 255 40 40
15.8189 0.2362 1.4458 255 40 40
15.8189 0.2362 1.4593 255 40 40
15.8189 0.2362 1.4728 255 40 40
15.8189 0.2362 1.4864 255 40 40
15.8189 0.2362 1.4999 255 40 40
15.8189 0.2362 1.5134 255 40 40
15.8189 0.2362 1.5269 255 40 40
15.8189 0.2362 1.5405 255 40 40
15.8189 0.2362 1.5540 255 40 40
15.8189 0.2362 1.5675 255 40 40
15.8189 0.2362 1.5811 255 40 40
15.8189 0.2362 1.5946 255 40 40
15.8189 0.2362 1.6081 255 40 40
15.8189 0.2362 1.6216 255 40 40
15.8189 0.2362 1.6352 255 40 40
15.8189 0.2362 1.6487 255 40 40
15.8189 0.2362 1.6622 255 40 40
15.8189 0.2362 1.6757 255 40 40
15.8189 0.2362 1.6893 255 40 40
15.8189 0.2362 1.7028 255 40 40
15.8189 0.2362 1.7163 255 40 40
15.8189 0.2362 1.7299 255 40 40
15.8189 0.2362 1.7434 255 40 40
15.8189 0.2362 1.7569 255 40 40
15.8189 0.2362 1.7704 255 40 40
15.8189 0.2362 1.7840 255 40 40
15.8189 0.2362 1.7975 255 40 40
15.8189 0.2362 1.8110 255 40 40
15.8189 0.2362 1.8245 255 40 40
15.8189 0.2362 1.8381 255 40 40
15.8189 0.2362 1.8516 255 40 40
15.8189 0.2362 1.8651 255 40 40
15.8189 0.2362 1.8787 255 40 40
15.8189 0.2362 1.8922 255 40 40
15.8189 0.2362 1.9057 255 40 40
15.8189 0.2362 1.9192 255 40 40
15.8189 0.2362 1.9328 255 40 40
15.8189 0.2362 1.9463 255 40 40
15.8189 0.2362 1.9598 255 40 40
15.8189 0.2362 1.9733 255 40 40
15.8189 0.2362 1.9869 255 40 40
15.8189 0.2362 2.0004 255 40 40
15.8189 0.2362 2.0139 255 40 40
15.8189 0.2362 2.0275 255 40 40
15.8189 0.2362 2.0410 255 40 40
15.8189 0.2362 2.0545 255 40 40
15.8189 0.2362 2.0680 255 40 40
15.8189 0.2362 2.0816 255 40 40
15.8189 0.2362 2.0951 255 40 40
15.8189 0.2362 2.1086 255 40 40
15.8189 0.2362 2.1221 255 40 40
15.8189 0.2362 2.1357 255 40 40
15.8189 0.2362 2.1492 255 40 40
15.8189 0.2362 2.1627 255 40 40
15.8189 0.2362 2.1763 255 40 40
15.8189 0.2362 2.1898 255 40 40
15.8189 0.2362 2.2033 255 40 40
15.8189 0.2362 2.2168 255 40 40
15.8189 0.2362 2.2304 255 40 40
15.8189 0.2362 2.2439 255 40 40
15.8189 0.2362 2.2574 255 40 40
15.8189 0.2362 2.2710 255 40 40
15.8189 0.2362 2.2845 255 40 40
15.8189 0.2362 2.2980 255 40 40
15.8189 0.2362 2.3115 255 40 40
15.8189 0.2362 2.3251 255 40 40
15.8189 0.2362 2.3386 255 40 40
15.8189 0.2362 2.3521 255 40 40
15.8189 0.2362 2.3656 255 40 40
15.8189 0.2362 2.3792 255 40 40
15.1138 -5.3983 0.1471 255 40 40
15.1138 -5.3983 0.1607 255 40 40
15.1138 -5.3983 0.1742 255 40 40
15.1138 -5.3983 0.1877 255 40 40
15.1138 -5.3983 0.2013 255 40 40
15.1138 -5.3983 0.2148 255 40 40
15.1138 -5.3983 0.2283 255 40 40
15.1138 -5.3983 0.2418 255 40 40
15.1138 -5.3983 0.2554 255 40 40
15.1138 -5.3983 0.2689 255 40 40
15.1138 -5.3983 0.2824 255 40 40
15.1138 -5.3983 0.2959 255 40 40
15.1138 -5.3983 0.3095 255 40 40
15.1138 -5.3983 0.3230 255 40 40
15.1138 -5.3983 0.3365 255 40 40
15.1138 -5.3983 0.3501 255 40 40
15.1138 -5.3983 0.3636 255 40 40
15.1138 -5.3983 0.3771 255 40 40
15.1138 -5.3983 0.3906 255 40 40
15.1138 -5.3983 0.4042 255 40 40
15.1138 -5.3983 0.4177 255 40 40
15.1138 -5.3983 0.4312 255 40 40
15.1138 -5.3983 0.4447 255 40 40
15.1138 -5.3983 0.4583 255 40 40
15.1138 -5.3983 0.4718 255 40 40
15.1138 -5.3983 0.4853 255 40 40
15.1138 -5.3983 0.4989 255 40 40
15.1138 -5.3983 0.5124 255 40 40
15.1138 -5.3983 0.5259 255 40 40
15.1138 -5.3983 0.5394 255 40 40
15.1138 -5.3983 0.5530 255 40 40
15.1138 -5.3983 0.5665 255 40 40
15.1138 -5.3983 0.5800 255 40 40
15.1138 -5.3983 0.5935 255 40 40
15.1138 -5.3983 0.6071 255 40 40
15.1138 -5.3983 0.6206 255 40 40
15.1138 -5.3983 0.6341 255 40 40
15.1138 -5.3983 0.6477 255 40 40
15.1138 -5.3983 0.6612 255 40 40
15.1138 -5.3983 0.6747 255 40 40
15.1138 -5.3983 0.6882 255 40 40
15.1138 -5.3983 0.7018 255 40 40
15.1138 -5.3983 0.7153 255 40 40
15.1138 -5.3983 0.7288 255 40 40
15.1138 -5.3983 0.7423 255 40 40
15.1138 -5.3983 0.7559 255 40 40
15.1138 -5.3983 0.7694 255 40 40
15.1138 -5.3983 0.7829 255 40 40
15.1138 -5.3983 0.7965 255 40 40
15.1138 -5.3983 0.8100 255 40 40
15.1138 -5.3983 0.8235 255 40 40
15.1138 -5.3983 0.8370 255 40 40
15.1138 -5.3983 0.8506 255 40 40
15.1138 -5.3983 0.8641 255 40 40
15.1138 -5.3983 0.8776 255 40 40
15.1138 -5.3983 0.8912 255 40 40
15.1138 -5.3983 0.9047 255 40 40
15.1138 -5.3983 0.9182 255 40 40
15.1138 -5.3983 0.9317 255 40 40
15.1138 -5.3983 0.9453 255 40 40
15.1138 -5.3983 0.9588 255 40 40
15.1138 -5.3983 0.9723 255 40 40
15.1138 -5.3983 0.9858 255 40 40
15.1138 -5.3983 0.9994 255 40 40
15.1138 -5.3983 1.0129 255 40 40
15.1138 -5.3983 1.0264 255 40 40
15.1138 -5.3983 1.0400 255 40 40
15.1138 -5.3983 1.0535 255 40 40
15.1138 -5.3983 1.0670 255 40 40
15.1138 -5.3983 1.0805 255 40 40
15.1138 -5.3983 1.0941 255 40 40
15.1138 -5.3983 1.1076 255 40 40
15.1138 -5.3983 1.1211 255 40 40
15.1138 -5.3983 1.1346 255 40 40
15.1138 -5.3983 1.1482 255 40 40
15.1138 -5.3983 1.1617 255 40 40
15.1138 -5.3983 1.1752 255 40 40
15.1138 -5.3983 1.1888 255 40 40
15.1138 -5.3983 1.2023 255 40 40
15.1138 -5.3983 1.2158 255 40 40
15.1138 -5.3983 1.2293 255 40 40
15.1138 -5.3983 1.2429 255 40 40
15.1138 -5.3983 1.2564 255 40 40
15.1138 -5.3983 1.2699 255 40 40
15.1138 -5.3983 1.2834 255 40 40
15.1138 -5.3983 1.2970 255 40 40
15.1138 -5.3983 1.3105 255 40 40
15.1138 -5.3983 1.3240 255 40 40
15.1138 -5.3983 1.3376 255 40 40
15.1138 -5.3983 1.3511 255 40 40
15.1138 -5.3983 1.3646 255 40 40
15.1138 -5.3983 1.3781 255 40 40
15.1138 -5.3983 1.3917 255 40 40
15.1138 -5.3983 1.4052 255 40 40
15.1138 -5.3983 1.4187 255 40 40
15.1138 -5.3983 1.4322 255 40 40
15.1138 -5.3983 1.4458 255 40 40
15.1138 -5.3983 1.4593 255 40 40
15.1138 -5.3983 1.4728 255 40 40
15.1138 -5.3983 1.4864 255 40 40
15.1138 -5.3983 1.4999 255 40 40
15.1138 -5.3983 1.5134 255 40 40
15.1138 -5.3983 1.5269 255 40 40
15.1138 -5.3983 1.5405 255 40 40
15.1138 -5.3983 1.5540 255 40 40
15.1138 -5.3983 1.5675 255 40 40
15.1138 -5.3983 1.5811 255 40 40
15.1138 -5.3983 1.5946 255 40 40
15.1138 -5.3983 1.6081 255 40 40
15.1138 -5.3983 1.6216 255 40 40
15.1138 -5.3983 1.6352 255 40 40
15.1138 -5.3983 1.6487 255 40 40
15.1138 -5.3983 1.6622 255 40 40
15.1138 -5.3983 1.6757 255 40 40
15.1138 -5.3983 1.6893 255 40 40
15.1138 -5.3983 1.7028 255 40 40
15.1138 -5.3983 1.7163 255 40 40
15.1138 -5.3983 1.7299 255 40 40
15.1138 -5.3983 1.7434 255 40 40
15.1138 -5.3983 1.7569 255 40 40
15.1138 -5.3983 1.7704 255 40 40
15.1138 -5.3983 1.7840 255 40 40
15.1138 -5.3983 1.7975 255 40 40
15.1138 -5.3983 1.8110 255 40 40
15.1138 -5.3983 1.8245 255 40 40
15.1138 -5.3983 1.8381 255 40 40
15.1138 -5.3983 1.8516 255 40 40
15.1138 -5.3983 1.8651 255 40 40
15.1138 -5.3983 1.8787 255 40 40
15.1138 -5.3983 1.8922 255 40 40
15.1138 -5.3983 1.9057 255 40 40
15.1138 -5.3983 1.9192 255 40 40
15.1138 -5.3983 1.9328 255 40 40
15.1138 -5.3983 1.9463 255 40 40
15.1138 -5.3983 1.9598 255 40 40
15.1138 -5.3983 1.9733 255 40 40
15.1138 -5.3983 1.9869 255 40 40
15.1138 -5.3983 2.0004 255 40 40
15.1138 -5.3983 2.0139 255 40 40
15.1138 -5.3983 2.0275 255 40 40
15.1138 -5.3983 2.0410 255 40 40
15.1138 -5.3983 2.0545 255 40 40
15.1138 -5.3983 2.0680 255 40 40
15.1138 -5.3983 2.0816 255 40 40
15.1138 -5.3983 2.0951 255 40 40
15.1138 -5.3983 2.1086 255 40 40
15.1138 -5.3983 2.1221 255 40 40
15.1138 -5.3983 2.1357 255 40 40
15.1138 -5.3983 2.1492 255 40 40
15.1138 -5.3983 2.1627 255 40 40
15.1138 -5.3983 2.1763 255 40 40
15.1138 -5.3983 2.1898 255 40 40
15.1138 -5.3983 2.2033 255 40 40
15.1138 -5.3983 2.2168 255 40 40
15.1138 -5.3983 2.2304 255 40 40
15.1138 -5.3983 2.2439 255 40 40
15.1138 -5.3983 2.2574 255 40 40
15.1138 -5.3983 2.2710 255 40 40
15.1138 -5.3983 2.2845 255 40 40
15.1138 -5.3983 2.2980 255 40 40
15.1138 -5.3983 2.3115 255 40 40
15.1138 -5.3983 2.3251 255 40 40
15.1138 -5.3983 2.3386 255 40 40
15.1138 -5.3983 2.3521 255 40 40
15.1138 -5.3983 2.3656 255 40 40
15.1138 -5.3983 2.3792 255 40 40
17.8278 -5.7379 0.1471 255 40 40
17.8278 -5.7379 0.1607 255 40 40
17.8278 -5.7379 0.1742 255 40 40
17.8278 -5.7379 0.1877 255 40 40
17.8278 -5.7379 0.2013 255 40 40
17.8278 -5.7379 0.2148 255 40 40
17.8278 -5.7379 0.2283 255 40 40
17.8278 -5.7379 0.2418 255 40 40
17.8278 -5.7379 0.2554 255 40 40
17.8278 -5.7379 0.2689 255 40 40
17.8278 -5.7379 0.2824 255 40 40
17.8278 -5.7379 0.2959 255 40 40
17.8278 -5.7379 0.3095 255 40 40
17.8278 -5.7379 0.3230 255 40 40
17.8278 -5.7379 0.3365 255 40 40
17.8278 -5.7379 0.3501 255 40 40
17.8278 -5.7379 0.3636 255 40 40
17.8278 -5.7379 0.3771 255 40 40
17.8278 -5.7379 0.3906 255 40 40
17.8278 -5.7379 0.4042 255 40 40
17.8278 -5.7379 0.4177 255 40 40
17.8278 -5.7379 0.4312 255 40 40
17.8278 -5.7379 0.4447 255 40 40
17.8278 -5.7379 0.4583 255 40 40
17.8278 -5.7379 0.4718 255 40 40
17.8278 -5.7379 0.4853 255 40 40
17.8278 -5.7379 0.4989 255 40 40
17.8278 -5.7379 0.5124 255 40 40
17.8278 -5.7379 0.5259 255 40 40
17.8278 -5.7379 0.5394 255 40 40
17.8278 -5.7379 0.5530 255 40 40
17.8278 -5.7379 0.5665 255 40 40
17.8278 -5.7379 0.5800 255 40 40
17.8278 -5.7379 0.5935 255 40 40
17.8278 -5.7379 0.6071 255 40 40
17.8278 -5.7379 0.6206 255 40 40
17.8278 -5.7379 0.6341 255 40 40
17.8278 -5.7379 0.6477 255 40 40
17.8278 -5.7379 0.6612 255 40 40
17.8278 -5.7379 0.6747 255 40 40
17.8278 -5.7379 0.6882 255 40 40
17.8278 -5.7379 0.7018 255 40 40
17.8278 -5.7379 0.7153 255 40 40
17.8278 -5.7379 0.7288 255 40 40
17.8278 -5.7379 0.7423 255 40 40
17.8278 -5.7379 0.7559 255 40 40
17.8278 -5.7379 0.7694 255 40 40
17.8278 -5.7379 0.7829 255 40 40
17.8278 -5.7379 0.7965 255 40 40
17.8278 -5.7379 0.8100 255 40 40
17.8278 -5.7379 0.8235 255 40 40
17.8278 -5.7379 0.8370 255 40 40
17.8278 -5.7379 0.8506 255 40 40
17.8278 -5.7379 0.8641 255 40 40
17.8278 -5.7379 0.8776 255 40 40
17.8278 -5.7379 0.8912 255 40 40
17.8278 -5.7379 0.9047 255 40 40
17.8278 -5.7379 0.9182 255 40 40
17.8278 -5.7379 0.9317 255 40 40
17.8278 -5.7379 0.9453 255 40 40
17.8278 -5.7379 0.9588 255 40 40
17.8278 -5.7379 0.9723 255 40 40
17.8278 -5.7379 0.9858 255 40 40
17.8278 -5.7379 0.9994 255 40 40
17.8278 -5.7379 1.0129 255 40 40
17.8278 -5.7379 1.0264 255 40 40
17.8278 -5.7379 1.0400 255 40 40
17.8278 -5.7379 1.0535 255 40 40
17.8278 -5.7379 1.0670 255 40 40
17.8278 -5.7379 1.0805 255 40 40
17.8278 -5.7379 1.0941 255 40 40
17.8278 -5.7379 1.1076 255 40 40
17.8278 -5.7379 1.1211 255 40 40
17.8278 -5.7379 1.1346 255 40 40
17.8278 -5.7379 1.1482 255 40 40
17.8278 -5.7379 1.1617 255 40 40
17.8278 -5.7379 1.1752 255 40 40
17.8278 -5.7379 1.1888 255 40 40
17.8278 -5.7379 1.2023 255 40 40
17.8278 -5.7379 1.2158 255 40 40
17.8278 -5.7379 1.2293 255 40 40
17.8278 -5.7379 1.2429 255 40 40
17.8278 -5.7379 1.2564 255 40 40
17.8278 -5.7379 1.2699 255 40 40
17.8278 -5.7379 1.2834 255 40 40
17.8278 -5.7379 1.2970 255 40 40
17.8278 -5.7379 1.3105 255 40 40
17.8278 -5.7379 1.3240 255 40 40
17.8278 -5.7379 1.3376 255 40 40
17.8278 -5.7379 1.3511 255 40 40
17.8278 -5.7379 1.3646 255 40 40
17.8278 -5.7379 1.3781 255 40 40
17.8278 -5.7379 1.3917 255 40 40
17.8278 -5.7379 1.4052 255 40 40
17.8278 -5.7379 1.4187 255 40 40
17.8278 -5.7379 1.4322 255 40 40
17.8278 -5.7379 1.4458 255 40 40
17.8278 -5.7379 1.4593 255 40 40
17.8278 -5.7379 1.4728 255 40 40
17.8278 -5.7379 1.4864 255 40 40
17.8278 -5.7379 1.4999 255 40 40
17.8278 -5.7379 1.5134 255 40 40
17.8278 -5.7379 1.5269 255 40 40
17.8278 -5.7379 1.5405 255 40 40
17.8278 -5.7379 1.5540 255 40 40
17.8278 -5.7379 1.5675 255 40 40
17.8278 -5.7379 1.5811 255 40 40
17.8278 -5.7379 1.5946 255 40 40
17.8278 -5.7379 1.6081 255 40 40
17.8278 -5.7379 1.6216 255 40 40
17.8278 -5.7379 1.6352 255 40 40
17.8278 -5.7379 1.6487 255 40 40
17.8278 -5.7379 1.6622 255 40 40
17.8278 -5.7379 1.6757 255 40 40
17.8278 -5.7379 1.6893 255 40 40
17.8278 -5.7379 1.7028 255 40 40
17.8278 -5.7379 1.7163 255 40 40
17.8278 -5.7379 1.7299 255 40 40
17.8278 -5.7379 1.7434 255 40 40
17.8278 -5.7379 1.7569 255 40 40
17.8278 -5.7379 1.7704 255 40 40
17.8278 -5.7379 1.7840 255 40 40
17.8278 -5.7379 1.7975 255 40 40
17.8278 -5.7379 1.8110 255 40 40
17.8278 -5.7379 1.8245 255 40 40
17.8278 -5.7379 1.8381 255 40 40
17.8278 -5.7379 1.8516 255 40 40
17.8278 -5.7379 1.8651 255 40 40
17.8278 -5.7379 1.8787 255 40 40
17.8278 -5.7379 1.8922 255 40 40
17.8278 -5.7379 1.9057 255 40 40
