ply
format ascii 1.0
element vertex 1494
property float x
property float y
property float z
property uchar red
property uchar green
property uchar blue
end_header
24.1558 5.7781 0.8380 255 40 40
24.1635 5.8187 0.8380 255 40 40
24.1713 5.8593 0.8380 255 40 40
24.1790 5.8999 0.8380 255 40 40
24.1868 5.9406 0.8380 255 40 40
24.1945 5.9812 0.8380 255 40 40
24.2022 6.0218 0.8380 255 40 40
24.2100 6.0624 0.8380 255 40 40
24.2177 6.1030 0.8380 255 40 40
24.2255 6.1437 0.8380 255 40 40
24.2332 6.1843 0.8380 255 40 40
24.2410 6.2249 0.8380 255 40 40
24.2487 6.2655 0.8380 255 40 40
24.2565 6.3062 0.8380 255 40 40
24.2642 6.3468 0.8380 255 40 40
24.2720 6.3874 0.8380 255 40 40
24.2797 6.4280 0.8380 255 40 40
24.2875 6.4686 0.8380 255 40 40
24.2952 6.5093 0.8380 255 40 40
24.3030 6.5499 0.8380 255 40 40
24.3107 6.5905 0.8380 255 40 40
24.3185 6.6311 0.8380 255 40 40
24.3262 6.6718 0.8380 255 40 40
24.3340 6.7124 0.8380 255 40 40
24.3417 6.7530 0.8380 255 40 40
24.3495 6.7936 0.8380 255 40 40
24.3572 6.8342 0.8380 255 40 40
24.3650 6.8749 0.8380 255 40 40
24.3727 6.9155 0.8380 255 40 40
24.3805 6.9561 0.8380 255 40 40
24.3882 6.9967 0.8380 255 40 40
24.3960 7.0374 0.8380 255 40 40
24.4037 7.0780 0.8380 255 40 40
24.4115 7.1186 0.8380 255 40 40
24.4192 7.1592 0.8380 255 40 40
24.4270 7.1998 0.8380 255 40 40
24.4347 7.2405 0.8380 255 40 40
24.4424 7.2811 0.8380 255 40 40
24.4502 7.3217 0.8380 255 40 40
24.4579 7.3623 0.8380 255 40 40
24.4657 7.4030 0.8380 255 40 40
24.4734 7.4436 0.8380 255 40 40
24.4812 7.4842 0.8380 255 40 40
24.4889 7.5248 0.8380 255 40 40
24.4889 7.5248 0.8380 255 40 40
24.4720 7.5281 0.8380 255 40 40
24.4551 7.5313 0.8380 255 40 40
24.4382 7.5345 0.8380 255 40 40
24.4213 7.5377 0.8380 255 40 40
24.4043 7.5410 0.8380 255 40 40
24.3874 7.5442 0.8380 255 40 40
24.3705 7.5474 0.8380 255 40 40
24.3536 7.5506 0.8380 255 40 40
24.3367 7.5539 0.8380 255 40 40
24.3197 7.5571 0.8380 255 40 40
24.3028 7.5603 0.8380 255 40 40
24.2859 7.5636 0.8380 255 40 40
24.2690 7.5668 0.8380 255 40 40
24.2521 7.5700 0.8380 255 40 40
24.2351 7.5732 0.8380 255 40 40
24.2182 7.5765 0.8380 255 40 40
24.2013 7.5797 0.8380 255 40 40
24.1844 7.5829 0.8380 255 40 40
24.1674 7.5861 0.8380 255 40 40
24.1505 7.5894 0.8380 255 40 40
24.1336 7.5926 0.8380 255 40 40
24.1167 7.5958 0.8380 255 40 40
24.0998 7.5991 0.8380 255 40 40
24.0828 7.6023 0.8380 255 40 40
24.0659 7.6055 0.8380 255 40 40
24.0490 7.6087 0.8380 255 40 40
24.0321 7.6120 0.8380 255 40 40
24.0152 7.6152 0.8380 255 40 40
23.9982 7.6184 0.8380 255 40 40
23.9813 7.6217 0.8380 255 40 40
23.9644 7.6249 0.8380 255 40 40
23.9475 7.6281 0.8380 255 40 40
23.9306 7.6313 0.8380 255 40 40
23.9136 7.6346 0.8380 255 40 40
23.8967 7.6378 0.8380 255 40 40
23.8798 7.6410 0.8380 255 40 40
23.8629 7.6442 0.8380 255 40 40
23.8460 7.6475 0.8380 255 40 40
23.8290 7.6507 0.8380 255 40 40
23.8121 7.6539 0.8380 255 40 40
23.7952 7.6572 0.8380 255 40 40
23.7783 7.6604 0.8380 255 40 40
23.7614 7.6636 0.8380 255 40 40
23.7444 7.6668 0.8380 255 40 40
23.7275 7.6701 0.8380 255 40 40
23.7106 7.6733 0.8380 255 40 40
23.6937 7.6765 0.8380 255 40 40
23.6767 7.6797 0.8380 255 40 40
23.6598 7.6830 0.8380 255 40 40
23.6429 7.6862 0.8380 255 40 40
23.6260 7.6894 0.8380 255 40 40
23.6091 7.6927 0.8380 255 40 40
23.5921 7.6959 0.8380 255 40 40
23.5752 7.6991 0.8380 255 40 40
23.5583 7.7023 0.8380 255 40 40
23.5414 7.7056 0.8380 255 40 40
23.5245 7.7088 0.8380 255 40 40
23.5075 7.7120 0.8380 255 40 40
23.4906 7.7153 0.8380 255 40 40
23.4737 7.7185 0.8380 255 40 40
23.4568 7.7217 0.8380 255 40 40
23.4399 7.7249 0.8380 255 40 40
23.4229 7.7282 0.8380 255 40 40
23.4060 7.7314 0.8380 255 40 40
23.3891 7.7346 0.8380 255 40 40
23.3722 7.7378 0.8380 255 40 40
23.3553 7.7411 0.8380 255 40 40
23.3383 7.7443 0.8380 255 40 40
23.3214 7.7475 0.8380 255 40 40
23.3045 7.7508 0.8380 255 40 40
23.2876 7.7540 0.8380 255 40 40
23.2707 7.7572 0.8380 255 40 40
23.2537 7.7604 0.8380 255 40 40
23.2368 7.7637 0.8380 255 40 40
23.2199 7.7669 0.8380 255 40 40
23.2030 7.7701 0.8380 255 40 40
23.1860 7.7733 0.8380 255 40 40
23.1691 7.7766 0.8380 255 40 40
23.1522 7.7798 0.8380 255 40 40
23.1353 7.7830 0.8380 255 40 40
23.1184 7.7863 0.8380 255 40 40
23.1014 7.7895 0.8380 255 40 40
23.0845 7.7927 0.8380 255 40 40
23.0676 7.7959 0.8380 255 40 40
23.0507 7.7992 0.8380 255 40 40
23.0338 7.8024 0.8380 255 40 40
23.0168 7.8056 0.8380 255 40 40
22.9999 7.8088 0.8380 255 40 40
22.9830 7.8121 0.8380 255 40 40
22.9661 7.8153 0.8380 255 40 40
22.9492 7.8185 0.8380 255 40 40
22.9322 7.8218 0.8380 255 40 40
22.9153 7.8250 0.8380 255 40 40
22.8984 7.8282 0.8380 255 40 40
22.8815 7.8314 0.8380 255 40 40
22.8646 7.8347 0.8380 255 40 40
22.8476 7.8379 0.8380 255 40 40
22.8307 7.8411 0.8380 255 40 40
22.8138 7.8444 0.8380 255 40 40
22.7969 7.8476 0.8380 255 40 40
22.7800 7.8508 0.8380 255 40 40
22.7630 7.8540 0.8380 255 40 40
22.7461 7.8573 0.8380 255 40 40
22.7292 7.8605 0.8380 255 40 40
22.7123 7.8637 0.8380 255 40 40
22.6953 7.8669 0.8380 255 40 40
22.6784 7.8702 0.8380 255 40 40
22.6615 7.8734 0.8380 255 40 40
22.6446 7.8766 0.8380 255 40 40
22.6277 7.8799 0.8380 255 40 40
22.6107 7.8831 0.8380 255 40 40
22.5938 7.8863 0.8380 255 40 40
22.5769 7.8895 0.8380 255 40 40
22.5600 7.8928 0.8380 255 40 40
22.5431 7.8960 0.8380 255 40 40
22.5261 7.8992 0.8380 255 40 40
22.5092 7.9024 0.8380 255 40 40
22.4923 7.9057 0.8380 255 40 40
22.4754 7.9089 0.8380 255 40 40
22.4585 7.9121 0.8380 255 40 40
22.4415 7.9154 0.8380 255 40 40
22.4246 7.9186 0.8380 255 40 40
22.4077 7.9218 0.8380 255 40 40
22.3908 7.9250 0.8380 255 40 40
22.3739 7.9283 0.8380 255 40 40
22.3569 7.9315 0.8380 255 40 40
22.3400 7.9347 0.8380 255 40 40
22.3231 7.9379 0.8380 255 40 40
22.3062 7.9412 0.8380 255 40 40
22.2893 7.9444 0.8380 255 40 40
22.2723 7.9476 0.8380 255 40 40
22.2554 7.9509 0.8380 255 40 40
22.2385 7.9541 0.8380 255 40 40
22.2216 7.9573 0.8380 255 40 40
22.2046 7.9605 0.8380 255 40 40
22.1877 7.9638 0.8380 255 40 40
22.1708 7.9670 0.8380 255 40 40
22.1539 7.9702 0.8380 255 40 40
22.1370 7.9735 0.8380 255 40 40
22.1200 7.9767 0.8380 255 40 40
22.1031 7.9799 0.8380 255 40 40
22.0862 7.9831 0.8380 255 40 40
22.0693 7.9864 0.8380 255 40 40
22.0524 7.9896 0.8380 255 40 40
22.0354 7.9928 0.8380 255 40 40
22.0185 7.9960 0.8380 255 40 40
22.0016 7.9993 0.8380 255 40 40
21.9847 8.0025 0.8380 255 40 40
21.9678 8.0057 0.8380 255 40 40
21.9508 8.0090 0.8380 255 40 40
21.9339 8.0122 0.8380 255 40 40
21.9170 8.0154 0.8380 255 40 40
21.9001 8.0186 0.8380 255 40 40
21.8832 8.0219 0.8380 255 40 40
21.8662 8.0251 0.8380 255 40 40
21.8493 8.0283 0.8380 255 40 40
21.8324 8.0315 0.8380 255 40 40
21.8155 8.0348 0.8380 255 40 40
21.7986 8.0380 0.8380 255 40 40
21.7816 8.0412 0.8380 255 40 40
21.7647 8.0445 0.8380 255 40 40
21.7478 8.0477 0.8380 255 40 40
21.7309 8.0509 0.8380 255 40 40
21.7139 8.0541 0.8380 255 40 40
21.6970 8.0574 0.8380 255 40 40
21.6970 8.0574 0.8380 255 40 40
21.6893 8.0167 0.8380 255 40 40
21.6815 7.9761 0.8380 255 40 40
21.6738 7.9355 0.8380 255 40 40
21.6660 7.8949 0.8380 255 40 40
21.6583 7.8543 0.8380 255 40 40
21.6505 7.8136 0.8380 255 40 40
21.6428 7.7730 0.8380 255 40 40
21.6350 7.7324 0.8380 255 40 40
21.6273 7.6918 0.8380 255 40 40
21.6195 7.6511 0.8380 255 40 40
21.6118 7.6105 0.8380 255 40 40
21.6040 7.5699 0.8380 255 40 40
21.5963 7.5293 0.8380 255 40 40
21.5885 7.4887 0.8380 255 40 40
21.5808 7.4480 0.8380 255 40 40
21.5731 7.4074 0.8380 255 40 40
21.5653 7.3668 0.8380 255 40 40
21.5576 7.3262 0.8380 255 40 40
21.5498 7.2855 0.8380 255 40 40
21.5421 7.2449 0.8380 255 40 40
21.5343 7.2043 0.8380 255 40 40
21.5266 7.1637 0.8380 255 40 40
21.5188 7.1231 0.8380 255 40 40
21.5111 7.0824 0.8380 255 40 40
21.5033 7.0418 0.8380 255 40 40
21.4956 7.0012 0.8380 255 40 40
21.4878 6.9606 0.8380 255 40 40
21.4801 6.9199 0.8380 255 40 40
21.4723 6.8793 0.8380 255 40 40
21.4646 6.8387 0.8380 255 40 40
21.4568 6.7981 0.8380 255 40 40
21.4491 6.7575 0.8380 255 40 40
21.4413 6.7168 0.8380 255 40 40
21.4336 6.6762 0.8380 255 40 40
21.4258 6.6356 0.8380 255 40 40
21.4181 6.5950 0.8380 255 40 40
21.4103 6.5543 0.8380 255 40 40
21.4026 6.5137 0.8380 255 40 40
21.3948 6.4731 0.8380 255 40 40
21.3871 6.4325 0.8380 255 40 40
21.3793 6.3919 0.8380 255 40 40
21.3716 6.3512 0.8380 255 40 40
21.3638 6.3106 0.8380 255 40 40
21.3561 6.2700 0.8380 255 40 40
21.3483 6.2294 0.8380 255 40 40
21.3406 6.1887 0.8380 255 40 40
21.3328 6.1481 0.8380 255 40 40
21.3251 6.1075 0.8380 255 40 40
21.3174 6.0669 0.8380 255 40 40
21.3096 6.0263 0.8380 255 40 40
21.3019 5.9856 0.8380 255 40 40
21.2941 5.9450 0.8380 255 40 40
21.2864 5.9044 0.8380 255 40 40
21.2786 5.8638 0.8380 255 40 40
21.2709 5.8231 0.8380 255 40 40
21.2631 5.7825 0.8380 255 40 40
21.2554 5.7419 0.8380 255 40 40
21.2476 5.7013 0.8380 255 40 40
21.2399 5.6607 0.8380 255 40 40
21.2321 5.6200 0.8380 255 40 40
21.2244 5.5794 0.8380 255 40 40
21.2166 5.5388 0.8380 255 40 40
21.2089 5.4982 0.8380 255 40 40
21.2011 5.4575 0.8380 255 40 40
21.1934 5.4169 0.8380 255 40 40
21.1856 5.3763 0.8380 255 40 40
21.1779 5.3357 0.8380 255 40 40
21.1701 5.2951 0.8380 255 40 40
21.1624 5.2544 0.8380 255 40 40
21.1546 5.2138 0.8380 255 40 40
21.1469 5.1732 0.8380 255 40 40
21.1391 5.1326 0.8380 255 40 40
21.1314 5.0919 0.8380 255 40 40
21.1236 5.0513 0.8380 255 40 40
21.1159 5.0107 0.8380 255 40 40
21.1081 4.9701 0.8380 255 40 40
21.1004 4.9294 0.8380 255 40 40
21.0926 4.8888 0.8380 255 40 40
21.0849 4.8482 0.8380 255 40 40
21.0772 4.8076 0.8380 255 40 40
21.0694 4.7670 0.8380 255 40 40
21.0617 4.7263 0.8380 255 40 40
21.0539 4.6857 0.8380 255 40 40
21.0462 4.6451 0.8380 255 40 40
21.0384 4.6045 0.8380 255 40 40
21.0307 4.5638 0.8380 255 40 40
21.0229 4.5232 0.8380 255 40 40
21.0152 4.4826 0.8380 255 40 40
21.0074 4.4420 0.8380 255 40 40
20.9997 4.4014 0.8380 255 40 40
20.9919 4.3607 0.8380 255 40 40
20.9842 4.3201 0.8380 255 40 40
20.9764 4.2795 0.8380 255 40 40
20.9687 4.2389 0.8380 255 40 40
20.9609 4.1982 0.8380 255 40 40
20.9532 4.1576 0.8380 255 40 40
20.9454 4.1170 0.8380 255 40 40
20.9377 4.0764 0.8380 255 40 40
20.9299 4.0358 0.8380 255 40 40
20.9222 3.9951 0.8380 255 40 40
20.9144 3.9545 0.8380 255 40 40
20.9067 3.9139 0.8380 255 40 40
20.8989 3.8733 0.8380 255 40 40
20.8912 3.8326 0.8380 255 40 40
20.8834 3.7920 0.8380 255 40 40
20.8757 3.7514 0.8380 255 40 40
20.8679 3.7108 0.8380 255 40 40
20.8602 3.6702 0.8380 255 40 40
20.8524 3.6295 0.8380 255 40 40
20.8447 3.5889 0.8380 255 40 40
20.8370 3.5483 0.8380 255 40 40
20.8292 3.5077 0.8380 255 40 40
20.8215 3.4670 0.8380 255 40 40
20.8137 3.4264 0.8380 255 40 40
20.8060 3.3858 0.8380 255 40 40
20.7982 3.3452 0.8380 255 40 40
20.7905 3.3046 0.8380 255 40 40
20.7827 3.2639 0.8380 255 40 40
20.7750 3.2233 0.8380 255 40 40
20.7672 3.1827 0.8380 255 40 40
20.7595 3.1421 0.8380 255 40 40
20.7517 3.1014 0.8380 255 40 40
20.7440 3.0608 0.8380 255 40 40
20.7362 3.0202 0.8380 255 40 40
20.7285 2.9796 0.8380 255 40 40
20.7207 2.9390 0.8380 255 40 40
20.7130 2.8983 0.8380 255 40 40
20.7052 2.8577 0.8380 255 40 40
20.6975 2.8171 0.8380 255 40 40
20.6897 2.7765 0.8380 255 40 40
20.6820 2.7358 0.8380 255 40 40
20.6742 2.6952 0.8380 255 40 40
20.6665 2.6546 0.8380 255 40 40
20.6587 2.6140 0.8380 255 40 40
20.6510 2.5734 0.8380 255 40 40
20.6432 2.5327 0.8380 255 40 40
20.6355 2.4921 0.8380 255 40 40
20.6277 2.4515 0.8380 255 40 40
20.6200 2.4109 0.8380 255 40 40
20.6122 2.3702 0.8380 255 40 40
20.6045 2.3296 0.8380 255 40 40
20.5967 2.2890 0.8380 255 40 40
20.5890 2.2484 0.8380 255 40 40
20.5813 2.2078 0.8380 255 40 40
20.5735 2.1671 0.8380 255 40 40
20.5658 2.1265 0.8380 255 40 40
20.5580 2.0859 0.8380 255 40 40
20.5503 2.0453 0.8380 255 40 40
20.5425 2.0046 0.8380 255 40 40
20.5348 1.9640 0.8380 255 40 40
20.5270 1.9234 0.8380 255 40 40
20.5193 1.8828 0.8380 255 40 40
20.5115 1.8422 0.8380 255 40 40
20.5038 1.8015 0.8380 255 40 40
20.4960 1.7609 0.8380 255 40 40
20.4883 1.7203 0.8380 255 40 40
20.4805 1.6797 0.8380 255 40 40
20.4728 1.6390 0.8380 255 40 40
20.4650 1.5984 0.8380 255 40 40
20.4573 1.5578 0.8380 255 40 40
20.4495 1.5172 0.8380 255 40 40
20.4418 1.4766 0.8380 255 40 40
20.4340 1.4359 0.8380 255 40 40
20.4263 1.3953 0.8380 255 40 40
20.4185 1.3547 0.8380 255 40 40
20.4185 1.3547 0.8380 255 40 40
20.4355 1.3515 0.8380 255 40 40
20.4524 1.3482 0.8380 255 40 40
20.4693 1.3450 0.8380 255 40 40
20.4862 1.3418 0.8380 255 40 40
20.5031 1.3385 0.8380 255 40 40
20.5201 1.3353 0.8380 255 40 40
20.5370 1.3321 0.8380 255 40 40
20.5539 1.3289 0.8380 255 40 40
20.5708 1.3256 0.8380 255 40 40
20.5877 1.3224 0.8380 255 40 40
20.6047 1.3192 0.8380 255 40 40
20.6216 1.3160 0.8380 255 40 40
20.6385 1.3127 0.8380 255 40 40
20.6554 1.3095 0.8380 255 40 40
20.6723 1.3063 0.8380 255 40 40
20.6893 1.3030 0.8380 255 40 40
20.7062 1.2998 0.8380 255 40 40
20.7231 1.2966 0.8380 255 40 40
20.7400 1.2934 0.8380 255 40 40
20.7569 1.2901 0.8380 255 40 40
20.7739 1.2869 0.8380 255 40 40
20.7908 1.2837 0.8380 255 40 40
20.8077 1.2805 0.8380 255 40 40
20.8246 1.2772 0.8380 255 40 40
20.8416 1.2740 0.8380 255 40 40
20.8585 1.2708 0.8380 255 40 40
20.8754 1.2675 0.8380 255 40 40
20.8923 1.2643 0.8380 255 40 40
20.9092 1.2611 0.8380 255 40 40
20.9262 1.2579 0.8380 255 40 40
20.9431 1.2546 0.8380 255 40 40
20.9600 1.2514 0.8380 255 40 40
20.9769 1.2482 0.8380 255 40 40
20.9938 1.2450 0.8380 255 40 40
21.0108 1.2417 0.8380 255 40 40
21.0277 1.2385 0.8380 255 40 40
21.0446 1.2353 0.8380 255 40 40
21.0615 1.2320 0.8380 255 40 40
21.0784 1.2288 0.8380 255 40 40
21.0954 1.2256 0.8380 255 40 40
21.1123 1.2224 0.8380 255 40 40
21.1292 1.2191 0.8380 255 40 40
21.1461 1.2159 0.8380 255 40 40
21.1630 1.2127 0.8380 255 40 40
21.1800 1.2094 0.8380 255 40 40
21.1969 1.2062 0.8380 255 40 40
21.2138 1.2030 0.8380 255 40 40
21.2307 1.1998 0.8380 255 40 40
21.2476 1.1965 0.8380 255 40 40
21.2646 1.1933 0.8380 255 40 40
21.2815 1.1901 0.8380 255 40 40
21.2984 1.1869 0.8380 255 40 40
21.3153 1.1836 0.8380 255 40 40
21.3323 1.1804 0.8380 255 40 40
21.3492 1.1772 0.8380 255 40 40
21.3661 1.1739 0.8380 255 40 40
21.3830 1.1707 0.8380 255 40 40
21.3999 1.1675 0.8380 255 40 40
21.4169 1.1643 0.8380 255 40 40
21.4338 1.1610 0.8380 255 40 40
21.4507 1.1578 0.8380 255 40 40
21.4676 1.1546 0.8380 255 40 40
21.4845 1.1514 0.8380 255 40 40
21.5015 1.1481 0.8380 255 40 40
21.5184 1.1449 0.8380 255 40 40
21.5353 1.1417 0.8380 255 40 40
21.5522 1.1384 0.8380 255 40 40
21.5691 1.1352 0.8380 255 40 40
21.5861 1.1320 0.8380 255 40 40
21.6030 1.1288 0.8380 255 40 40
21.6199 1.1255 0.8380 255 40 40
21.6368 1.1223 0.8380 255 40 40
21.6537 1.1191 0.8380 255 40 40
21.6707 1.1158 0.8380 255 40 40
21.6876 1.1126 0.8380 255 40 40
21.7045 1.1094 0.8380 255 40 40
21.7214 1.1062 0.8380 255 40 40
21.7383 1.1029 0.8380 255 40 40
21.7553 1.0997 0.8380 255 40 40
21.7722 1.0965 0.8380 255 40 40
21.7891 1.0933 0.8380 255 40 40
21.8060 1.0900 0.8380 255 40 40
21.8230 1.0868 0.8380 255 40 40
21.8399 1.0836 0.8380 255 40 40
21.8568 1.0803 0.8380 255 40 40
21.8737 1.0771 0.8380 255 40 40
21.8906 1.0739 0.8380 255 40 40
21.9076 1.0707 0.8380 255 40 40
21.9245 1.0674 0.8380 255 40 40
21.9414 1.0642 0.8380 255 40 40
21.9583 1.0610 0.8380 255 40 40
21.9752 1.0578 0.8380 255 40 40
21.9922 1.0545 0.8380 255 40 40
22.0091 1.0513 0.8380 255 40 40
22.0260 1.0481 0.8380 255 40 40
22.0429 1.0448 0.8380 255 40 40
22.0598 1.0416 0.8380 255 40 40
22.0768 1.0384 0.8380 255 40 40
22.0937 1.0352 0.8380 255 40 40
22.1106 1.0319 0.8380 255 40 40
22.1275 1.0287 0.8380 255 40 40
22.1444 1.0255 0.8380 255 40 40
22.1614 1.0223 0.8380 255 40 40
22.1783 1.0190 0.8380 255 40 40
22.1952 1.0158 0.8380 255 40 40
22.2121 1.0126 0.8380 255 40 40
22.2290 1.0093 0.8380 255 40 40
22.2460 1.0061 0.8380 255 40 40
22.2629 1.0029 0.8380 255 40 40
22.2798 0.9997 0.8380 255 40 40
22.2967 0.9964 0.8380 255 40 40
22.3137 0.9932 0.8380 255 40 40
22.3306 0.9900 0.8380 255 40 40
22.3475 0.9867 0.8380 255 40 40
22.3644 0.9835 0.8380 255 40 40
22.3813 0.9803 0.8380 255 40 40
22.3983 0.9771 0.8380 255 40 40
22.4152 0.9738 0.8380 255 40 40
22.4321 0.9706 0.8380 255 40 40
22.4490 0.9674 0.8380 255 40 40
22.4659 0.9642 0.8380 255 40 40
22.4829 0.9609 0.8380 255 40 40
22.4998 0.9577 0.8380 255 40 40
22.5167 0.9545 0.8380 255 40 40
22.5336 0.9512 0.8380 255 40 40
22.5505 0.9480 0.8380 255 40 40
22.5675 0.9448 0.8380 255 40 40
22.5844 0.9416 0.8380 255 40 40
22.6013 0.9383 0.8380 255 40 40
22.6182 0.9351 0.8380 255 40 40
22.6351 0.9319 0.8380 255 40 40
22.6521 0.9287 0.8380 255 40 40
22.6690 0.9254 0.8380 255 40 40
22.6859 0.9222 0.8380 255 40 40
22.7028 0.9190 0.8380 255 40 40
22.7197 0.9157 0.8380 255 40 40
22.7367 0.9125 0.8380 255 40 40
22.7536 0.9093 0.8380 255 40 40
22.7705 0.9061 0.8380 255 40 40
22.7874 0.9028 0.8380 255 40 40
22.8043 0.8996 0.8380 255 40 40
22.8213 0.8964 0.8380 255 40 40
22.8382 0.8932 0.8380 255 40 40
22.8551 0.8899 0.8380 255 40 40
22.8720 0.8867 0.8380 255 40 40
22.8890 0.8835 0.8380 255 40 40
22.9059 0.8802 0.8380 255 40 40
22.9228 0.8770 0.8380 255 40 40
22.9397 0.8738 0.8380 255 40 40
22.9566 0.8706 0.8380 255 40 40
22.9736 0.8673 0.8380 255 40 40
22.9905 0.8641 0.8380 255 40 40
23.0074 0.8609 0.8380 255 40 40
23.0243 0.8576 0.8380 255 40 40
23.0412 0.8544 0.8380 255 40 40
23.0582 0.8512 0.8380 255 40 40
23.0751 0.8480 0.8380 255 40 40
23.0920 0.8447 0.8380 255 40 40
23.1089 0.8415 0.8380 255 40 40
23.1258 0.8383 0.8380 255 40 40
23.1428 0.8351 0.8380 255 40 40
23.1597 0.8318 0.8380 255 40 40
23.1766 0.8286 0.8380 255 40 40
23.1935 0.8254 0.8380 255 40 40
23.2104 0.8221 0.8380 255 40 40
23.2104 0.8221 3.1106 255 40 40
23.2182 0.8628 3.1106 255 40 40
23.2259 0.9034 3.1106 255 40 40
23.2337 0.9440 3.1106 255 40 40
23.2414 0.9846 3.1106 255 40 40
23.2492 1.0253 3.1106 255 40 40
23.2569 1.0659 3.1106 255 40 40
23.2647 1.1065 3.1106 255 40 40
23.2724 1.1471 3.1106 255 40 40
23.2802 1.1877 3.1106 255 40 40
23.2879 1.2284 3.1106 255 40 40
23.2957 1.2690 3.1106 255 40 40
23.3034 1.3096 3.1106 255 40 40
23.3112 1.3502 3.1106 255 40 40
23.3189 1.3909 3.1106 255 40 40
23.3267 1.4315 3.1106 255 40 40
23.3344 1.4721 3.1106 255 40 40
23.3422 1.5127 3.1106 255 40 40
23.3499 1.5533 3.1106 255 40 40
23.3577 1.5940 3.1106 255 40 40
23.3654 1.6346 3.1106 255 40 40
23.3732 1.6752 3.1106 255 40 40
23.3809 1.7158 3.1106 255 40 40
23.3887 1.7565 3.1106 255 40 40
23.3964 1.7971 3.1106 255 40 40
23.4042 1.8377 3.1106 255 40 40
23.4119 1.8783 3.1106 255 40 40
23.4197 1.9189 3.1106 255 40 40
23.4274 1.9596 3.1106 255 40 40
23.4352 2.0002 3.1106 255 40 40
23.4429 2.0408 3.1106 255 40 40
23.4506 2.0814 3.1106 255 40 40
23.4584 2.1221 3.1106 255 40 40
23.4661 2.1627 3.1106 255 40 40
23.4739 2.2033 3.1106 255 40 40
23.4816 2.2439 3.1106 255 40 40
23.4894 2.2845 3.1106 255 40 40
23.4971 2.3252 3.1106 255 40 40
23.5049 2.3658 3.1106 255 40 40
23.5126 2.4064 3.1106 255 40 40
23.5204 2.4470 3.1106 255 40 40
23.5281 2.4877 3.1106 255 40 40
23.5359 2.5283 3.1106 255 40 40
23.5436 2.5689 3.1106 255 40 40
23.5514 2.6095 3.1106 255 40 40
23.5591 2.6501 3.1106 255 40 40
23.5669 2.6908 3.1106 255 40 40
23.5746 2.7314 3.1106 255 40 40
23.5824 2.7720 3.1106 255 40 40
23.5901 2.8126 3.1106 255 40 40
23.5979 2.8533 3.1106 255 40 40
23.6056 2.8939 3.1106 255 40 40
23.6134 2.9345 3.1106 255 40 40
23.6211 2.9751 3.1106 255 40 40
23.6289 3.0158 3.1106 255 40 40
23.6366 3.0564 3.1106 255 40 40
23.6444 3.0970 3.1106 255 40 40
23.6521 3.1376 3.1106 255 40 40
23.6599 3.1782 3.1106 255 40 40
23.6676 3.2189 3.1106 255 40 40
23.6754 3.2595 3.1106 255 40 40
23.6831 3.3001 3.1106 255 40 40
23.6909 3.3407 3.1106 255 40 40
23.6986 3.3814 3.1106 255 40 40
23.7063 3.4220 3.1106 255 40 40
23.7141 3.4626 3.1106 255 40 40
23.7218 3.5032 3.1106 255 40 40
23.7296 3.5438 3.1106 255 40 40
23.7373 3.5845 3.1106 255 40 40
23.7451 3.6251 3.1106 255 40 40
23.7528 3.6657 3.1106 255 40 40
23.7606 3.7063 3.1106 255 40 40
23.7683 3.7470 3.1106 255 40 40
23.7761 3.7876 3.1106 255 40 40
23.7838 3.8282 3.1106 255 40 40
23.7916 3.8688 3.1106 255 40 40
23.7993 3.9094 3.1106 255 40 40
23.8071 3.9501 3.1106 255 40 40
23.8148 3.9907 3.1106 255 40 40
23.8226 4.0313 3.1106 255 40 40
23.8303 4.0719 3.1106 255 40 40
23.8381 4.1126 3.1106 255 40 40
23.8458 4.1532 3.1106 255 40 40
23.8536 4.1938 3.1106 255 40 40
23.8613 4.2344 3.1106 255 40 40
23.8691 4.2750 3.1106 255 40 40
23.8768 4.3157 3.1106 255 40 40
23.8846 4.3563 3.1106 255 40 40
23.8923 4.3969 3.1106 255 40 40
23.9001 4.4375 3.1106 255 40 40
23.9078 4.4782 3.1106 255 40 40
23.9156 4.5188 3.1106 255 40 40
23.9233 4.5594 3.1106 255 40 40
23.9311 4.6000 3.1106 255 40 40
23.9388 4.6406 3.1106 255 40 40
23.9466 4.6813 3.1106 255 40 40
23.9543 4.7219 3.1106 255 40 40
23.9620 4.7625 3.1106 255 40 40
23.9698 4.8031 3.1106 255 40 40
23.9775 4.8438 3.1106 255 40 40
23.9853 4.8844 3.1106 255 40 40
23.9930 4.9250 3.1106 255 40 40
24.0008 4.9656 3.1106 255 40 40
24.0085 5.0062 3.1106 255 40 40
24.0163 5.0469 3.1106 255 40 40
24.0240 5.0875 3.1106 255 40 40
24.0318 5.1281 3.1106 255 40 40
24.0395 5.1687 3.1106 255 40 40
24.0473 5.2094 3.1106 255 40 40
24.0550 5.2500 3.1106 255 40 40
24.0628 5.2906 3.1106 255 40 40
24.0705 5.3312 3.1106 255 40 40
24.0783 5.3718 3.1106 255 40 40
24.0860 5.4125 3.1106 255 40 40
24.0938 5.4531 3.1106 255 40 40
24.1015 5.4937 3.1106 255 40 40
24.1093 5.5343 3.1106 255 40 40
24.1170 5.5750 3.1106 255 40 40
24.1248 5.6156 3.1106 255 40 40
24.1325 5.6562 3.1106 255 40 40
24.1403 5.6968 3.1106 255 40 40
24.1480 5.7374 3.1106 255 40 40
24.1558 5.7781 3.1106 255 40 40
24.1635 5.8187 3.1106 255 40 40
24.1713 5.8593 3.1106 255 40 40
24.1790 5.8999 3.1106 255 40 40
24.1868 5.9406 3.1106 255 40 40
24.1945 5.9812 3.1106 255 40 40
24.2022 6.0218 3.1106 255 40 40
24.2100 6.0624 3.1106 255 40 40
24.2177 6.1030 3.1106 255 40 40
24.2255 6.1437 3.1106 255 40 40
24.2332 6.1843 3.1106 255 40 40
24.2410 6.2249 3.1106 255 40 40
24.2487 6.2655 3.1106 255 40 40
24.2565 6.3062 3.1106 255 40 40
24.2642 6.3468 3.1106 255 40 40
24.2720 6.3874 3.1106 255 40 40
24.2797 6.4280 3.1106 255 40 40
24.2875 6.4686 3.1106 255 40 40
24.2952 6.5093 3.1106 255 40 40
24.3030 6.5499 3.1106 255 40 40
24.3107 6.5905 3.1106 255 40 40
24.3185 6.6311 3.1106 255 40 40
24.3262 6.6718 3.1106 255 40 40
24.3340 6.7124 3.1106 255 40 40
24.3417 6.7530 3.1106 255 40 40
24.3495 6.7936 3.1106 255 40 40
24.3572 6.8342 3.1106 255 40 40
24.3650 6.8749 3.1106 255 40 40
24.3727 6.9155 3.1106 255 40 40
24.3805 6.9561 3.1106 255 40 40
24.3882 6.9967 3.1106 255 40 40
24.3960 7.0374 3.1106 255 40 40
24.4037 7.0780 3.1106 255 40 40
24.4115 7.1186 3.1106 255 40 40
24.4192 7.1592 3.1106 255 40 40
24.4270 7.1998 3.1106 255 40 40
24.4347 7.2405 3.1106 255 40 40
24.4424 7.2811 3.1106 255 40 40
24.4502 7.3217 3.1106 255 40 40
24.4579 7.3623 3.1106 255 40 40
24.4657 7.4030 3.1106 255 40 40
24.4734 7.4436 3.1106 255 40 40
24.4812 7.4842 3.1106 255 40 40
24.4889 7.5248 3.1106 255 40 40
24.4889 7.5248 3.1106 255 40 40
24.4720 7.5281 3.1106 255 40 40
24.4551 7.5313 3.1106 255 40 40
24.4382 7.5345 3.1106 255 40 40
24.4213 7.5377 3.1106 255 40 40
24.4043 7.5410 3.1106 255 40 40
24.3874 7.5442 3.1106 255 40 40
24.3705 7.5474 3.1106 255 40 40
24.3536 7.5506 3.1106 255 40 40
24.3367 7.5539 3.1106 255 40 40
24.3197 7.5571 3.1106 255 40 40
24.3028 7.5603 3.1106 255 40 40
24.2859 7.5636 3.1106 255 40 40
24.2690 7.5668 3.1106 255 40 40
24.2521 7.5700 3.1106 255 40 40
24.2351 7.5732 3.1106 255 40 40
24.2182 7.5765 3.1106 255 40 40
24.2013 7.5797 3.1106 255 40 40
24.1844 7.5829 3.1106 255 40 40
24.1674 7.5861 3.1106 255 40 40
24.1505 7.5894 3.1106 255 40 40
24.1336 7.5926 3.1106 255 40 40
24.1167 7.5958 3.1106 255 40 40
24.0998 7.5991 3.1106 255 40 40
24.0828 7.6023 3.1106 255 40 40
24.0659 7.6055 3.1106 255 40 40
24.0490 7.6087 3.1106 255 40 40
24.0321 7.6120 3.1106 255 40 40
24.0152 7.6152 3.1106 255 40 40
23.9982 7.6184 3.1106 255 40 40
23.9813 7.6217 3.1106 255 40 40
23.9644 7.6249 3.1106 255 40 40
23.9475 7.6281 3.1106 255 40 40
23.9306 7.6313 3.1106 255 40 40
23.9136 7.6346 3.1106 255 40 40
23.8967 7.6378 3.1106 255 40 40
23.8798 7.6410 3.1106 255 40 40
23.8629 7.6442 3.1106 255 40 40
23.8460 7.6475 3.1106 255 40 40
23.8290 7.6507 3.1106 255 40 40
23.8121 7.6539 3.1106 255 40 40
23.7952 7.6572 3.1106 255 40 40
23.7783 7.6604 3.1106 255 40 40
23.7614 7.6636 3.1106 255 40 40
23.7444 7.6668 3.1106 255 40 40
23.7275 7.6701 3.1106 255 40 40
23.7106 7.6733 3.1106 255 40 40
23.6937 7.6765 3.1106 255 40 40
23.6767 7.6797 3.1106 255 40 40
23.6598 7.6830 3.1106 255 40 40
23.6429 7.6862 3.1106 255 40 40
23.6260 7.6894 3.1106 255 40 40
23.6091 7.6927 3.1106 255 40 40
23.5921 7.6959 3.1106 255 40 40
23.5752 7.6991 3.1106 255 40 40
23.5583 7.7023 3.1106 255 40 40
23.5414 7.7056 3.1106 255 40 40
23.5245 7.7088 3.1106 255 40 40
23.5075 7.7120 3.1106 255 40 40
23.4906 7.7153 3.1106 255 40 40
23.4737 7.7185 3.1106 255 40 40
23.4568 7.7217 3.1106 255 40 40
23.4399 7.7249 3.1106 255 40 40
23.4229 7.7282 3.1106 255 40 40
23.4060 7.7314 3.1106 255 40 40
23.3891 7.7346 3.1106 255 40 40
23.3722 7.7378 3.1106 255 40 40
23.3553 7.7411 3.1106 255 40 40
23.3383 7.7443 3.1106 255 40 40
23.3214 7.7475 3.1106 255 40 40
23.3045 7.7508 3.1106 255 40 40
23.2876 7.7540 3.1106 255 40 40
23.2707 7.7572 3.1106 255 40 40
23.2537 7.7604 3.1106 255 40 40
23.2368 7.7637 3.1106 255 40 40
23.2199 7.7669 3.1106 255 40 40
23.2030 7.7701 3.1106 255 40 40
23.1860 7.7733 3.1106 255 40 40
23.1691 7.7766 3.1106 255 40 40
23.1522 7.7798 3.1106 255 40 40
23.1353 7.7830 3.1106 255 40 40
23.1184 7.7863 3.1106 255 40 40
23.1014 7.7895 3.1106 255 40 40
23.0845 7.7927 3.1106 255 40 40
23.0676 7.7959 3.1106 255 40 40
23.0507 7.7992 3.1106 255 40 40
23.0338 7.8024 3.1106 255 40 40
23.0168 7.8056 3.1106 255 40 40
22.9999 7.8088 3.1106 255 40 40
22.9830 7.8121 3.1106 255 40 40
22.9661 7.8153 3.1106 255 40 40
22.9492 7.8185 3.1106 255 40 40
22.9322 7.8218 3.1106 255 40 40
22.9153 7.8250 3.1106 255 40 40
22.8984 7.8282 3.1106 255 40 40
22.8815 7.8314 3.1106 255 40 40
22.8646 7.8347 3.1106 255 40 40
22.8476 7.8379 3.1106 255 40 40
22.8307 7.8411 3.1106 255 40 40
22.8138 7.8444 3.1106 255 40 40
22.7969 7.8476 3.1106 255 40 40
22.7800 7.8508 3.1106 255 40 40
22.7630 7.8540 3.1106 255 40 40
22.7461 7.8573 3.1106 255 40 40
22.7292 7.8605 3.1106 255 40 40
22.7123 7.8637 3.1106 255 40 40
22.6953 7.8669 3.1106 255 40 40
22.6784 7.8702 3.1106 255 40 40
22.6615 7.8734 3.1106 255 40 40
22.6446 7.8766 3.1106 255 40 40
22.6277 7.8799 3.1106 255 40 40
22.6107 7.8831 3.1106 255 40 40
22.5938 7.8863 3.1106 255 40 40
22.5769 7.8895 3.1106 255 40 40
22.5600 7.8928 3.1106 255 40 40
22.5431 7.8960 3.1106 255 40 40
22.5261 7.8992 3.1106 255 40 40
22.5092 7.9024 3.1106 255 40 40
22.4923 7.9057 3.1106 255 40 40
22.4754 7.9089 3.1106 255 40 40
22.4585 7.9121 3.1106 255 40 40
22.4415 7.9154 3.1106 255 40 40
22.4246 7.9186 3.1106 255 40 40
22.4077 7.9218 3.1106 255 40 40
22.3908 7.9250 3.1106 255 40 40
22.3739 7.9283 3.1106 255 40 40
22.3569 7.9315 3.1106 255 40 40
22.3400 7.9347 3.1106 255 40 40
22.3231 7.9379 3.1106 255 40 40
22.3062 7.9412 3.1106 255 40 40
22.2893 7.9444 3.1106 255 40 40
22.2723 7.9476 3.1106 255 40 40
22.2554 7.9509 3.1106 255 40 40
22.2385 7.9541 3.1106 255 40 40
22.2216 7.9573 3.1106 255 40 40
22.2046 7.9605 3.1106 255 40 40
22.1877 7.9638 3.1106 255 40 40
22.1708 7.9670 3.1106 255 40 40
22.1539 7.9702 3.1106 255 40 40
22.1370 7.9735 3.1106 255 40 40
22.1200 7.9767 3.1106 255 40 40
22.1031 7.9799 3.1106 255 40 40
22.0862 7.9831 3.1106 255 40 40
22.0693 7.9864 3.1106 255 40 40
22.0524 7.9896 3.1106 255 40 40
22.0354 7.9928 3.1106 255 40 40
22.0185 7.9960 3.1106 255 40 40
22.0016 7.9993 3.1106 255 40 40
21.9847 8.0025 3.1106 255 40 40
21.9678 8.0057 3.1106 255 40 40
21.9508 8.0090 3.1106 255 40 40
21.9339 8.0122 3.1106 255 40 40
21.9170 8.0154 3.1106 255 40 40
21.9001 8.0186 3.1106 255 40 40
21.8832 8.0219 3.1106 255 40 40
21.8662 8.0251 3.1106 255 40 40
21.8493 8.0283 3.1106 255 40 40
21.8324 8.0315 3.1106 255 40 40
21.8155 8.0348 3.1106 255 40 40
21.7986 8.0380 3.1106 255 40 40
21.7816 8.0412 3.1106 255 40 40
21.7647 8.0445 3.1106 255 40 40
21.7478 8.0477 3.1106 255 40 40
21.7309 8.0509 3.1106 255 40 40
21.7139 8.0541 3.1106 255 40 40
21.6970 8.0574 3.1106 255 40 40
21.6970 8.0574 3.1106 255 40 40
21.6893 8.0167 3.1106 255 40 40
21.6815 7.9761 3.1106 255 40 40
21.6738 7.9355 3.1106 255 40 40
21.6660 7.8949 3.1106 255 40 40
21.6583 7.8543 3.1106 255 40 40
21.6505 7.8136 3.1106 255 40 40
21.6428 7.7730 3.1106 255 40 40
21.6350 7.7324 3.1106 255 40 40
21.6273 7.6918 3.1106 255 40 40
21.6195 7.6511 3.1106 255 40 40
21.6118 7.6105 3.1106 255 40 40
21.6040 7.5699 3.1106 255 40 40
21.5963 7.5293 3.1106 255 40 40
21.5885 7.4887 3.1106 255 40 40
21.5808 7.4480 3.1106 255 40 40
21.5731 7.4074 3.1106 255 40 40
21.5653 7.3668 3.1106 255 40 40
21.5576 7.3262 3.1106 255 40 40
21.5498 7.2855 3.1106 255 40 40
21.5421 7.2449 3.1106 255 40 40
21.5343 7.2043 3.1106 255 40 40
21.5266 7.1637 3.1106 255 40 40
21.5188 7.1231 3.1106 255 40 40
21.5111 7.0824 3.1106 255 40 40
21.5033 7.0418 3.1106 255 40 40
21.4956 7.0012 3.1106 255 40 40
21.4878 6.9606 3.1106 255 40 40
21.4801 6.9199 3.1106 255 40 40
21.4723 6.8793 3.1106 255 40 40
21.4646 6.8387 3.1106 255 40 40
21.4568 6.7981 3.1106 255 40 40
21.4491 6.7575 3.1106 255 40 40
21.4413 6.7168 3.1106 255 40 40
21.4336 6.6762 3.1106 255 40 40
21.4258 6.6356 3.1106 255 40 40
21.4181 6.5950 3.1106 255 40 40
21.4103 6.5543 3.1106 255 40 40
21.4026 6.5137 3.1106 255 40 40
21.3948 6.4731 3.1106 255 40 40
21.3871 6.4325 3.1106 255 40 40
21.3793 6.3919 3.1106 255 40 40
21.3716 6.3512 3.1106 255 40 40
21.3638 6.3106 3.1106 255 40 40
21.3561 6.2700 3.1106 255 40 40
21.3483 6.2294 3.1106 255 40 40
21.3406 6.1887 3.1106 255 40 40
21.3328 6.1481 3.1106 255 40 40
21.3251 6.1075 3.1106 255 40 40
21.3174 6.0669 3.1106 255 40 40
21.3096 6.0263 3.1106 255 40 40
21.3019 5.9856 3.1106 255 40 40
21.2941 5.9450 3.1106 255 40 40
21.2864 5.9044 3.1106 255 40 40
21.2786 5.8638 3.1106 255 40 40
21.2709 5.8231 3.1106 255 40 40
21.2631 5.7825 3.1106 255 40 40
21.2554 5.7419 3.1106 255 40 40
21.2476 5.7013 3.1106 255 40 40
21.2399 5.6607 3.1106 255 40 40
21.2321 5.6200 3.1106 255 40 40
21.2244 5.5794 3.1106 255 40 40
21.2166 5.5388 3.1106 255 40 40
21.2089 5.4982 3.1106 255 40 40
21.2011 5.4575 3.1106 255 40 40
21.1934 5.4169 3.1106 255 40 40
21.1856 5.3763 3.1106 255 40 40
21.1779 5.3357 3.1106 255 40 40
21.1701 5.2951 3.1106 255 40 40
21.1624 5.2544 3.1106 255 40 40
21.1546 5.2138 3.1106 255 40 40
21.1469 5.1732 3.1106 255 40 40
21.1391 5.1326 3.1106 255 40 40
21.1314 5.0919 3.1106 255 40 40
21.1236 5.0513 3.1106 255 40 40
21.1159 5.0107 3.1106 255 40 40
21.1081 4.9701 3.1106 255 40 40
21.1004 4.9294 3.1106 255 40 40
21.0926 4.8888 3.1106 255 40 40
21.0849 4.8482 3.1106 255 40 40
21.0772 4.8076 3.1106 255 40 40
21.0694 4.7670 3.1106 255 40 40
21.0617 4.7263 3.1106 255 40 40
21.0539 4.6857 3.1106 255 40 40
21.0462 4.6451 3.1106 255 40 40
21.0384 4.6045 3.1106 255 40 40
21.0307 4.5638 3.1106 255 40 40
21.0229 4.5232 3.1106 255 40 40
21.0152 4.4826 3.1106 255 40 40
21.0074 4.4420 3.1106 255 40 40
20.9997 4.4014 3.1106 255 40 40
20.9919 4.3607 3.1106 255 40 40
20.9842 4.3201 3.1106 255 40 40
20.9764 4.2795 3.1106 255 40 40
20.9687 4.2389 3.1106 255 40 40
20.9609 4.1982 3.1106 255 40 40
20.9532 4.1576 3.1106 255 40 40
20.9454 4.1170 3.1106 255 40 40
20.9377 4.0764 3.1106 255 40 40
20.9299 4.0358 3.1106 255 40 40
20.9222 3.9951 3.1106 255 40 40
20.9144 3.9545 3.1106 255 40 40
20.9067 3.9139 3.1106 255 40 40
20.8989 3.8733 3.1106 255 40 40
20.8912 3.8326 3.1106 255 40 40
20.8834 3.7920 3.1106 255 40 40
20.8757 3.7514 3.1106 255 40 40
20.8679 3.7108 3.1106 255 40 40
20.8602 3.6702 3.1106 255 40 40
20.8524 3.6295 3.1106 255 40 40
20.8447 3.5889 3.1106 255 40 40
20.8370 3.5483 3.1106 255 40 40
20.8292 3.5077 3.1106 255 40 40
20.8215 3.4670 3.1106 255 40 40
20.8137 3.4264 3.1106 255 40 40
20.8060 3.3858 3.1106 255 40 40
20.7982 3.3452 3.1106 255 40 40
20.7905 3.3046 3.1106 255 40 40
20.7827 3.2639 3.1106 255 40 40
20.7750 3.2233 3.1106 255 40 40
20.7672 3.1827 3.1106 255 40 40
20.7595 3.1421 3.1106 255 40 40
20.7517 3.1014 3.1106 255 40 40
20.7440 3.0608 3.1106 255 40 40
20.7362 3.0202 3.1106 255 40 40
20.7285 2.9796 3.1106 255 40 40
20.7207 2.9390 3.1106 255 40 40
20.7130 2.8983 3.1106 255 40 40
20.7052 2.8577 3.1106 255 40 40
20.6975 2.8171 3.1106 255 40 40
20.6897 2.7765 3.1106 255 40 40
20.6820 2.7358 3.1106 255 40 40
20.6742 2.6952 3.1106 255 40 40
20.6665 2.6546 3.1106 255 40 40
20.6587 2.6140 3.1106 255 40 40
20.6510 2.5734 3.1106 255 40 40
20.6432 2.5327 3.1106 255 40 40
20.6355 2.4921 3.1106 255 40 40
20.6277 2.4515 3.1106 255 40 40
20.6200 2.4109 3.1106 255 40 40
20.6122 2.3702 3.1106 255 40 40
20.6045 2.3296 3.1106 255 40 40
20.5967 2.2890 3.1106 255 40 40
20.5890 2.2484 3.1106 255 40 40
20.5813 2.2078 3.1106 255 40 40
20.5735 2.1671 3.1106 255 40 40
20.5658 2.1265 3.1106 255 40 40
20.5580 2.0859 3.1106 255 40 40
20.5503 2.0453 3.1106 255 40 40
20.5425 2.0046 3.1106 255 40 40
20.5348 1.9640 3.1106 255 40 40
20.5270 1.9234 3.1106 255 40 40
20.5193 1.8828 3.1106 255 40 40
20.5115 1.8422 3.1106 255 40 40
20.5038 1.8015 3.1106 255 40 40
20.4960 1.7609 3.1106 255 40 40
20.4883 1.7203 3.1106 255 40 40
20.4805 1.6797 3.1106 255 40 40
20.4728 1.6390 3.1106 255 40 40
20.4650 1.5984 3.1106 255 40 40
20.4573 1.5578 3.1106 255 40 40
20.4495 1.5172 3.1106 255 40 40
20.4418 1.4766 3.1106 255 40 40
20.4340 1.4359 3.1106 255 40 40
20.4263 1.3953 3.1106 255 40 40
20.4185 1.3547 3.1106 255 40 40
20.4185 1.3547 3.1106 255 40 40
20.4355 1.3515 3.1106 255 40 40
20.4524 1.3482 3.1106 255 40 40
20.4693 1.3450 3.1106 255 40 40
20.4862 1.3418 3.1106 255 40 40
20.5031 1.3385 3.1106 255 40 40
20.5201 1.3353 3.1106 255 40 40
20.5370 1.3321 3.1106 255 40 40
20.5539 1.3289 3.1106 255 40 40
20.5708 1.3256 3.1106 255 40 40
20.5877 1.3224 3.1106 255 40 40
20.6047 1.3192 3.1106 255 40 40
20.6216 1.3160 3.1106 255 40 40
20.6385 1.3127 3.1106 255 40 40
20.6554 1.3095 3.1106 255 40 40
20.6723 1.3063 3.1106 255 40 40
20.6893 1.3030 3.1106 255 40 40
20.7062 1.2998 3.1106 255 40 40
20.7231 1.2966 3.1106 255 40 40
20.7400 1.2934 3.1106 255 40 40
20.7569 1.2901 3.1106 255 40 40
20.7739 1.2869 3.1106 255 40 40
20.7908 1.2837 3.1106 255 40 40
20.8077 1.2805 3.1106 255 40 40
20.8246 1.2772 3.1106 255 40 40
20.8416 1.2740 3.1106 255 40 40
20.8585 1.2708 3.1106 255 40 40
20.8754 1.2675 3.1106 255 40 40
20.8923 1.2643 3.1106 255 40 40
20.9092 1.2611 3.1106 255 40 40
20.9262 1.2579 3.1106 255 40 40
20.9431 1.2546 3.1106 255 40 40
20.9600 1.2514 3.1106 255 40 40
20.9769 1.2482 3.1106 255 40 40
20.9938 1.2450 3.1106 255 40 40
21.0108 1.2417 3.1106 255 40 40
21.0277 1.2385 3.1106 255 40 40
21.0446 1.2353 3.1106 255 40 40
21.0615 1.2320 3.1106 255 40 40
21.0784 1.2288 3.1106 255 40 40
21.0954 1.2256 3.1106 255 40 40
21.1123 1.2224 3.1106 255 40 40
21.1292 1.2191 3.1106 255 40 40
21.1461 1.2159 3.1106 255 40 40
21.1630 1.2127 3.1106 255 40 40
21.1800 1.2094 3.1106 255 40 40
21.1969 1.2062 3.1106 255 40 40
21.2138 1.2030 3.1106 255 40 40
21.2307 1.1998 3.1106 255 40 40
21.2476 1.1965 3.1106 255 40 40
21.2646 1.1933 3.1106 255 40 40
21.2815 1.1901 3.1106 255 40 40
21.2984 1.1869 3.1106 255 40 40
21.3153 1.1836 3.1106 255 40 40
21.3323 1.1804 3.1106 255 40 40
21.3492 1.1772 3.1106 255 40 40
21.3661 1.1739 3.1106 255 40 40
21.3830 1.1707 3.1106 255 40 40
21.3999 1.1675 3.1106 255 40 40
21.4169 1.1643 3.1106 255 40 40
21.4338 1.1610 3.1106 255 40 40
21.4507 1.1578 3.1106 255 40 40
21.4676 1.1546 3.1106 255 40 40
21.4845 1.1514 3.1106 255 40 40
21.5015 1.1481 3.1106 255 40 40
21.5184 1.1449 3.1106 255 40 40
21.5353 1.1417 3.1106 255 40 40
21.5522 1.1384 3.1106 255 40 40
21.5691 1.1352 3.1106 255 40 40
21.5861 1.1320 3.1106 255 40 40
21.6030 1.1288 3.1106 255 40 40
21.6199 1.1255 3.1106 255 40 40
21.6368 1.1223 3.1106 255 40 40
21.6537 1.1191 3.1106 255 40 40
21.6707 1.1158 3.1106 255 40 40
21.6876 1.1126 3.1106 255 40 40
21.7045 1.1094 3.1106 255 40 40
21.7214 1.1062 3.1106 255 40 40
21.7383 1.1029 3.1106 255 40 40
21.7553 1.0997 3.1106 255 40 40
21.7722 1.0965 3.1106 255 40 40
21.7891 1.0933 3.1106 255 40 40
21.8060 1.0900 3.1106 255 40 40
21.8230 1.0868 3.1106 255 40 40
21.8399 1.0836 3.1106 255 40 40
21.8568 1.0803 3.1106 255 40 40
21.8737 1.0771 3.1106 255 40 40
21.8906 1.0739 3.1106 255 40 40
21.9076 1.0707 3.1106 255 40 40
21.9245 1.0674 3.1106 255 40 40
21.9414 1.0642 3.1106 255 40 40
21.9583 1.0610 3.1106 255 40 40
21.9752 1.0578 3.1106 255 40 40
21.9922 1.0545 3.1106 255 40 40
22.0091 1.0513 3.1106 255 40 40
22.0260 1.0481 3.1106 255 40 40
22.0429 1.0448 3.1106 255 40 40
22.0598 1.0416 3.1106 255 40 40
22.0768 1.0384 3.1106 255 40 40
22.0937 1.0352 3.1106 255 40 40
22.1106 1.0319 3.1106 255 40 40
22.1275 1.0287 3.1106 255 40 40
22.1444 1.0255 3.1106 255 40 40
22.1614 1.0223 3.1106 255 40 40
22.1783 1.0190 3.1106 255 40 40
22.1952 1.0158 3.1106 255 40 40
22.2121 1.0126 3.1106 255 40 40
22.2290 1.0093 3.1106 255 40 40
22.2460 1.0061 3.1106 255 40 40
22.2629 1.0029 3.1106 255 40 40
22.2798 0.9997 3.1106 255 40 40
22.2967 0.9964 3.1106 255 40 40
22.3137 0.9932 3.1106 255 40 40
22.3306 0.9900 3.1106 255 40 40
22.3475 0.9867 3.1106 255 40 40
22.3644 0.9835 3.1106 255 40 40
22.3813 0.9803 3.1106 255 40 40
22.3983 0.9771 3.1106 255 40 40
22.4152 0.9738 3.1106 255 40 40
22.4321 0.9706 3.1106 255 40 40
22.4490 0.9674 3.1106 255 40 40
22.4659 0.9642 3.1106 255 40 40
22.4829 0.9609 3.1106 255 40 40
22.4998 0.9577 3.1106 255 40 40
22.5167 0.9545 3.1106 255 40 40
22.5336 0.9512 3.1106 255 40 40
22.5505 0.9480 3.1106 255 40 40
22.5675 0.9448 3.1106 255 40 40
22.5844 0.9416 3.1106 255 40 40
22.6013 0.9383 3.1106 255 40 40
22.6182 0.9351 3.1106 255 40 40
22.6351 0.9319 3.1106 255 40 40
22.6521 0.9287 3.1106 255 40 40
22.6690 0.9254 3.1106 255 40 40
22.6859 0.9222 3.1106 255 40 40
22.7028 0.9190 3.1106 255 40 40
22.7197 0.9157 3.1106 255 40 40
22.7367 0.9125 3.1106 255 40 40
22.7536 0.9093 3.1106 255 40 40
22.7705 0.9061 3.1106 255 40 40
22.7874 0.9028 3.1106 255 40 40
22.8043 0.8996 3.1106 255 40 40
22.8213 0.8964 3.1106 255 40 40
22.8382 0.8932 3.1106 255 40 40
22.8551 0.8899 3.1106 255 40 40
22.8720 0.8867 3.1106 255 40 40
22.8890 0.8835 3.1106 255 40 40
22.9059 0.8802 3.1106 255 40 40
22.9228 0.8770 3.1106 255 40 40
22.9397 0.8738 3.1106 255 40 40
22.9566 0.8706 3.1106 255 40 40
22.9736 0.8673 3.1106 255 40 40
22.9905 0.8641 3.1106 255 40 40
23.0074 0.8609 3.1106 255 40 40
23.0243 0.8576 3.1106 255 40 40
23.0412 0.8544 3.1106 255 40 40
23.0582 0.8512 3.1106 255 40 40
23.0751 0.8480 3.1106 255 40 40
23.0920 0.8447 3.1106 255 40 40
23.1089 0.8415 3.1106 255 40 40
23.1258 0.8383 3.1106 255 40 40
23.1428 0.8351 3.1106 255 40 40
23.1597 0.8318 3.1106 255 40 40
23.1766 0.8286 3.1106 255 40 40
23.1935 0.8254 3.1106 255 40 40
23.2104 0.8221 3.1106 255 40 40
23.2104 0.8221 0.8380 255 40 40
23.2104 0.8221 0.8518 255 40 40
23.2104 0.8221 0.8655 255 40 40
23.2104 0.8221 0.8793 255 40 40
23.2104 0.8221 0.8931 255 40 40
23.2104 0.8221 0.9069 255 40 40
23.2104 0.8221 0.9206 255 40 40
23.2104 0.8221 0.9344 255 40 40
23.2104 0.8221 0.9482 255 40 40
23.2104 0.8221 0.9620 255 40 40
23.2104 0.8221 0.9757 255 40 40
23.2104 0.8221 0.9895 255 40 40
23.2104 0.8221 1.0033 255 40 40
23.2104 0.8221 1.0170 255 40 40
23.2104 0.8221 1.0308 255 40 40
23.2104 0.8221 1.0446 255 40 40
23.2104 0.8221 1.0584 255 40 40
23.2104 0.8221 1.0721 255 40 40
23.2104 0.8221 1.0859 255 40 40
23.2104 0.8221 1.0997 255 40 40
23.2104 0.8221 1.1135 255 40 40
23.2104 0.8221 1.1272 255 40 40
23.2104 0.8221 1.1410 255 40 40
23.2104 0.8221 1.1548 255 40 40
23.2104 0.8221 1.1685 255 40 40
23.2104 0.8221 1.1823 255 40 40
23.2104 0.8221 1.1961 255 40 40
23.2104 0.8221 1.2099 255 40 40
23.2104 0.8221 1.2236 255 40 40
23.2104 0.8221 1.2374 255 40 40
23.2104 0.8221 1.2512 255 40 40
23.2104 0.8221 1.2650 255 40 40
23.2104 0.8221 1.2787 255 40 40
23.2104 0.8221 1.2925 255 40 40
23.2104 0.8221 1.3063 255 40 40
23.2104 0.8221 1.3201 255 40 40
23.2104 0.8221 1.3338 255 40 40
23.2104 0.8221 1.3476 255 40 40
23.2104 0.8221 1.3614 255 40 40
23.2104 0.8221 1.3751 255 40 40
23.2104 0.8221 1.3889 255 40 40
23.2104 0.8221 1.4027 255 40 40
23.2104 0.8221 1.4165 255 40 40
23.2104 0.8221 1.4302 255 40 40
23.2104 0.8221 1.4440 255 40 40
23.2104 0.8221 1.4578 255 40 40
23.2104 0.8221 1.4716 255 40 40
23.2104 0.8221 1.4853 255 40 40
23.2104 0.8221 1.4991 255 40 40
23.2104 0.8221 1.5129 255 40 40
23.2104 0.8221 1.5267 255 40 40
23.2104 0.8221 1.5404 255 40 40
23.2104 0.8221 1.5542 255 40 40
23.2104 0.8221 1.5680 255 40 40
23.2104 0.8221 1.5817 255 40 40
23.2104 0.8221 1.5955 255 40 40
23.2104 0.8221 1.6093 255 40 40
23.2104 0.8221 1.6231 255 40 40
23.2104 0.8221 1.6368 255 40 40
23.2104 0.8221 1.6506 255 40 40
23.2104 0.8221 1.6644 255 40 40
23.2104 0.8221 1.6782 255 40 40
23.2104 0.8221 1.6919 255 40 40
23.2104 0.8221 1.7057 255 40 40
23.2104 0.8221 1.7195 255 40 40
23.2104 0.8221 1.7332 255 40 40
23.2104 0.8221 1.7470 255 40 40
23.2104 0.8221 1.7608 255 40 40
23.2104 0.8221 1.7746 255 40 40
23.2104 0.8221 1.7883 255 40 40
23.2104 0.8221 1.8021 255 40 40
23.2104 0.8221 1.8159 255 40 40
23.2104 0.8221 1.8297 255 40 40
23.2104 0.8221 1.8434 255 40 40
23.2104 0.8221 1.8572 255 40 40
23.2104 0.8221 1.8710 255 40 40
23.2104 0.8221 1.8848 255 40 40
23.2104 0.8221 1.8985 255 40 40
23.2104 0.8221 1.9123 255 40 40
23.2104 0.8221 1.9261 255 40 40
23.2104 0.8221 1.9398 255 40 40
23.2104 0.8221 1.9536 255 40 40
23.2104 0.8221 1.9674 255 40 40
23.2104 0.8221 1.9812 255 40 40
23.2104 0.8221 1.9949 255 40 40
23.2104 0.8221 2.0087 255 40 40
23.2104 0.8221 2.0225 255 40 40
23.2104 0.8221 2.0363 255 40 40
23.2104 0.8221 2.0500 255 40 40
23.2104 0.8221 2.0638 255 40 40
23.2104 0.8221 2.0776 255 40 40
23.2104 0.8221 2.0913 255 40 40
23.2104 0.8221 2.1051 255 40 40
23.2104 0.8221 2.1189 255 40 40
23.2104 0.8221 2.1327 255 40 40
23.2104 0.8221 2.1464 255 40 40
23.2104 0.8221 2.1602 255 40 40
23.2104 0.8221 2.1740 255 40 40
23.2104 0.8221 2.1878 255 40 40
23.2104 0.8221 2.2015 255 40 40
23.2104 0.8221 2.2153 255 40 40
23.2104 0.8221 2.2291 255 40 40
23.2104 0.8221 2.2429 255 40 40
23.2104 0.8221 2.2566 255 40 40
23.2104 0.8221 2.2704 255 40 40
23.2104 0.8221 2.2842 255 40 40
23.2104 0.8221 2.2979 255 40 40
23.2104 0.8221 2.3117 255 40 40
23.2104 0.8221 2.3255 255 40 40
23.2104 0.8221 2.3393 255 40 40
23.2104 0.8221 2.3530 255 40 40
23.2104 0.8221 2.3668 255 40 40
23.2104 0.8221 2.3806 255 40 40
23.2104 0.8221 2.3944 255 40 40
23.2104 0.8221 2.4081 255 40 40
23.2104 0.8221 2.4219 255 40 40
23.2104 0.8221 2.4357 255 40 40
23.2104 0.8221 2.4495 255 40 40
23.2104 0.8221 2.4632 255 40 40
23.2104 0.8221 2.4770 255 40 40
23.2104 0.8221 2.4908 255 40 40
23.2104 0.8221 2.5045 255 40 40
23.2104 0.8221 2.5183 255 40 40
23.2104 0.8221 2.5321 255 40 40
23.2104 0.8221 2.5459 255 40 40
23.2104 0.8221 2.5596 255 40 40
23.2104 0.8221 2.5734 255 40 40
23.2104 0.8221 2.5872 255 40 40
23.2104 0.8221 2.6010 255 40 40
23.2104 0.8221 2.6147 255 40 40
23.2104 0.8221 2.6285 255 40 40
23.2104 0.8221 2.6423 255 40 40
23.2104 0.8221 2.6560 255 40 40
23.2104 0.8221 2.6698 255 40 40
23.2104 0.8221 2.6836 255 40 40
23.2104 0.8221 2.6974 255 40 40
23.2104 0.8221 2.7111 255 40 40
23.2104 0.8221 2.7249 255 40 40
23.2104 0.8221 2.7387 255 40 40
23.2104 0.8221 2.7525 255 40 40
23.2104 0.8221 2.7662 255 40 40
23.2104 0.8221 2.7800 255 40 40
23.2104 0.8221 2.7938 255 40 40
23.2104 0.8221 2.8076 255 40 40
23.2104 0.8221 2.8213 255 40 40
23.2104 0.8221 2.8351 255 40 40
23.2104 0.8221 2.8489 255 40 40
23.2104 0.8221 2.8626 255 40 40
23.2104 0.8221 2.8764 255 40 40
23.2104 0.8221 2.8902 255 40 40
23.2104 0.8221 2.9040 255 40 40
23.2104 0.8221 2.9177 255 40 40
23.2104 0.8221 2.9315 255 40 40
23.2104 0.8221 2.9453 255 40 40
23.2104 0.8221 2.9591 255 40 40
23.2104 0.8221 2.9728 255 40 40
23.2104 0.8221 2.9866 255 40 40
23.2104 0.8221 3.0004 255 40 40
23.2104 0.8221 3.0142 255 40 40
23.2104 0.8221 3.0279 255 40 40
23.2104 0.8221 3.0417 255 40 40
23.2104 0.8221 3.0555 255 40 40
23.2104 0.8221 3.0692 255 40 40
23.2104 0.8221 3.0830 255 40 40
23.2104 0.8221 3.0968 255 40 40
23.2104 0.8221 3.1106 255 40 40
24.4889 7.5248 0.8380 255 40 40
24.4889 7.5248 0.8518 255 40 40
24.4889 7.5248 0.8655 255 40 40
24.4889 7.5248 0.8793 255 40 40
24.4889 7.5248 0.8931 255 40 40
24.4889 7.5248 0.9069 255 40 40
24.4889 7.5248 0.9206 255 40 40
24.4889 7.5248 0.9344 255 40 40
24.4889 7.5248 0.9482 255 40 40
24.4889 7.5248 0.9620 255 40 40
24.4889 7.5248 0.9757 255 40 40
24.4889 7.5248 0.9895 255 40 40
24.4889 7.5248 1.0033 255 40 40
24.4889 7.5248 1.0170 255 40 40
24.4889 7.5248 1.0308 255 40 40
24.4889 7.5248 1.0446 255 40 40
24.4889 7.5248 1.0584 255 40 40
24.4889 7.5248 1.0721 255 40 40
24.4889 7.5248 1.0859 255 40 40
24.4889 7.5248 1.0997 255 40 40
24.4889 7.5248 1.1135 255 40 40
24.4889 7.5248 1.1272 255 40 40
24.4889 7.5248 1.1410 255 40 40
24.4889 7.5248 1.1548 255 40 40
24.4889 7.5248 1.1685 255 40 40
24.4889 7.5248 1.1823 255 40 40
24.4889 7.5248 1.1961 255 40 40
24.4889 7.5248 1.2099 255 40 40
24.4889 7.5248 1.2236 255 40 40
24.4889 7.5248 1.2374 255 40 40
24.4889 7.5248 1.2512 255 40 40
24.4889 7.5248 1.2650 255 40 40
24.4889 7.5248 1.2787 255 40 40
24.4889 7.5248 1.2925 255 40 40
24.4889 7.5248 1.3063 255 40 40
24.4889 7.5248 1.3201 255 40 40
24.4889 7.5248 1.3338 255 40 40
24.4889 7.5248 1.3476 255 40 40
24.4889 7.5248 1.3614 255 40 40
24.4889 7.5248 1.3751 255 40 40
24.4889 7.5248 1.3889 255 40 40
24.4889 7.5248 1.4027 255 40 40
24.4889 7.5248 1.4165 255 40 40
24.4889 7.5248 1.4302 255 40 40
24.4889 7.5248 1.4440 255 40 40
24.4889 7.5248 1.4578 255 40 40
24.4889 7.5248 1.4716 255 40 40
24.4889 7.5248 1.4853 255 40 40
24.4889 7.5248 1.4991 255 40 40
24.4889 7.5248 1.5129 255 40 40
24.4889 7.5248 1.5267 255 40 40
24.4889 7.5248 1.5404 255 40 40
24.4889 7.5248 1.5542 255 40 40
24.4889 7.5248 1.5680 255 40 40
24.4889 7.5248 1.5817 255 40 40
24.4889 7.5248 1.5955 255 40 40
24.4889 7.5248 1.6093 255 40 40
24.4889 7.5248 1.6231 255 40 40
24.4889 7.5248 1.6368 255 40 40
24.4889 7.5248 1.6506 255 40 40
24.4889 7.5248 1.6644 255 40 40
24.4889 7.5248 1.6782 255 40 40
24.4889 7.5248 1.6919 255 40 40
24.4889 7.5248 1.7057 255 40 40
24.4889 7.5248 1.7195 255 40 40
24.4889 7.5248 1.7332 255 40 40
24.4889 7.5248 1.7470 255 40 40
24.4889 7.5248 1.7608 255 40 40
24.4889 7.5248 1.7746 255 40 40
24.4889 7.5248 1.7883 255 40 40
24.4889 7.5248 1.8021 255 40 40
24.4889 7.5248 1.8159 255 40 40
24.4889 7.5248 1.8297 255 40 40
24.4889 7.5248 1.8434 255 40 40
24.4889 7.5248 1.8572 255 40 40
24.4889 7.5248 1.8710 255 40 40
24.4889 7.5248 1.8848 255 40 40
24.4889 7.5248 1.8985 255 40 40
24.4889 7.5248 1.9123 255 40 40
24.4889 7.5248 1.9261 255 40 40
24.4889 7.5248 1.9398 255 40 40
24.4889 7.5248 1.9536 255 40 40
24.4889 7.5248 1.9674 255 40 40
24.4889 7.5248 1.9812 255 40 40
24.4889 7.5248 1.9949 255 40 40
24.4889 7.5248 2.0087 255 40 40
24.4889 7.5248 2.0225 255 40 40
24.4889 7.5248 2.0363 255 40 40
24.4889 7.5248 2.0500 255 40 40
24.4889 7.5248 2.0638 255 40 40
24.4889 7.5248 2.0776 255 40 40
24.4889 7.5248 2.0913 255 40 40
24.4889 7.5248 2.1051 255 40 40
24.4889 7.5248 2.1189 255 40 40
24.4889 7.5248 2.1327 255 40 40
24.4889 7.5248 2.1464 255 40 40
24.4889 7.5248 2.1602 255 40 40
24.4889 7.5248 2.1740 255 40 40
24.4889 7.5248 2.1878 255 40 40
24.4889 7.5248 2.2015 255 40 40
24.4889 7.5248 2.2153 255 40 40
24.4889 7.5248 2.2291 255 40 40
24.4889 7.5248 2.2429 255 40 40
24.4889 7.5248 2.2566 255 40 40
24.4889 7.5248 2.2704 255 40 40
24.4889 7.5248 2.2842 255 40 40
24.4889 7.5248 2.2979 255 40 40
24.4889 7.5248 2.3117 255 40 40
24.4889 7.5248 2.3255 255 40 40
24.4889 7.5248 2.3393 255 40 40
24.4889 7.5248 2.3530 255 40 40
24.4889 7.5248 2.3668 255 40 40
24.4889 7.5248 2.3806 255 40 40
24.4889 7.5248 2.3944 255 40 40
24.4889 7.5248 2.4081 255 40 40
24.4889 7.5248 2.4219 255 40 40
24.4889 7.5248 2.4357 255 40 40
24.4889 7.5248 2.4495 255 40 40
24.4889 7.5248 2.4632 255 40 40
24.4889 7.5248 2.4770 255 40 40
24.4889 7.5248 2.4908 255 40 40
24.4889 7.5248 2.5045 255 40 40
