ply
format ascii 1.0
element vertex 1381
property float x
property float y
property float z
property uchar red
property uchar green
property uchar blue
end_header
15.2711 -4.8697 0.0770 100 150 255
15.2680 -4.9044 0.0770 100 150 255
15.2650 -4.9392 0.0770 100 150 255
15.2619 -4.9739 0.0770 100 150 255
15.2589 -5.0087 0.0770 100 150 255
15.2558 -5.0434 0.0770 100 150 255
15.2527 -5.0781 0.0770 100 150 255
15.2497 -5.1129 0.0770 100 150 255
15.2466 -5.1476 0.0770 100 150 255
15.2435 -5.1823 0.0770 100 150 255
15.2405 -5.2171 0.0770 100 150 255
15.2374 -5.2518 0.0770 100 150 255
15.2343 -5.2865 0.0770 100 150 255
15.2313 -5.3213 0.0770 100 150 255
15.2282 -5.3560 0.0770 100 150 255
15.2251 -5.3907 0.0770 100 150 255
15.2221 -5.4255 0.0770 100 150 255
15.2190 -5.4602 0.0770 100 150 255
15.2190 -5.4602 0.0770 100 150 255
15.2353 -5.4617 0.0770 100 150 255
15.2515 -5.4631 0.0770 100 150 255
15.2678 -5.4645 0.0770 100 150 255
15.2840 -5.4660 0.0770 100 150 255
15.3003 -5.4674 0.0770 100 150 255
15.3165 -5.4688 0.0770 100 150 255
15.3328 -5.4703 0.0770 100 150 255
15.3490 -5.4717 0.0770 100 150 255
15.3653 -5.4731 0.0770 100 150 255
15.3815 -5.4746 0.0770 100 150 255
15.3978 -5.4760 0.0770 100 150 255
15.4140 -5.4774 0.0770 100 150 255
15.4303 -5.4789 0.0770 100 150 255
15.4465 -5.4803 0.0770 100 150 255
15.4628 -5.4817 0.0770 100 150 255
15.4790 -5.4832 0.0770 100 150 255
15.4953 -5.4846 0.0770 100 150 255
15.5115 -5.4860 0.0770 100 150 255
15.5278 -5.4875 0.0770 100 150 255
15.5441 -5.4889 0.0770 100 150 255
15.5603 -5.4903 0.0770 100 150 255
15.5766 -5.4918 0.0770 100 150 255
15.5928 -5.4932 0.0770 100 150 255
15.6091 -5.4946 0.0770 100 150 255
15.6253 -5.4961 0.0770 100 150 255
15.6416 -5.4975 0.0770 100 150 255
15.6578 -5.4989 0.0770 100 150 255
15.6741 -5.5004 0.0770 100 150 255
15.6903 -5.5018 0.0770 100 150 255
15.7066 -5.5032 0.0770 100 150 255
15.7228 -5.5047 0.0770 100 150 255
15.7391 -5.5061 0.0770 100 150 255
15.7553 -5.5075 0.0770 100 150 255
15.7716 -5.5090 0.0770 100 150 255
15.7878 -5.5104 0.0770 100 150 255
15.8041 -5.5118 0.0770 100 150 255
15.8203 -5.5133 0.0770 100 150 255
15.8366 -5.5147 0.0770 100 150 255
15.8528 -5.5161 0.0770 100 150 255
15.8691 -5.5176 0.0770 100 150 255
15.8853 -5.5190 0.0770 100 150 255
15.9016 -5.5204 0.0770 100 150 255
15.9178 -5.5219 0.0770 100 150 255
15.9341 -5.5233 0.0770 100 150 255
15.9503 -5.5247 0.0770 100 150 255
15.9666 -5.5262 0.0770 100 150 255
15.9828 -5.5276 0.0770 100 150 255
15.9991 -5.5290 0.0770 100 150 255
16.0153 -5.5305 0.0770 100 150 255
16.0316 -5.5319 0.0770 100 150 255
16.0478 -5.5333 0.0770 100 150 255
16.0641 -5.5348 0.0770 100 150 255
16.0803 -5.5362 0.0770 100 150 255
16.0966 -5.5376 0.0770 100 150 255
16.1129 -5.5391 0.0770 100 150 255
16.1291 -5.5405 0.0770 100 150 255
16.1454 -5.5419 0.0770 100 150 255
16.1616 -5.5434 0.0770 100 150 255
16.1779 -5.5448 0.0770 100 150 255
16.1941 -5.5462 0.0770 100 150 255
16.2104 -5.5477 0.0770 100 150 255
16.2266 -5.5491 0.0770 100 150 255
16.2429 -5.5505 0.0770 100 150 255
16.2591 -5.5520 0.0770 100 150 255
16.2754 -5.5534 0.0770 100 150 255
16.2916 -5.5548 0.0770 100 150 255
16.3079 -5.5563 0.0770 100 150 255
16.3241 -5.5577 0.0770 100 150 255
16.3404 -5.5591 0.0770 100 150 255
16.3566 -5.5606 0.0770 100 150 255
16.3729 -5.5620 0.0770 100 150 255
16.3891 -5.5634 0.0770 100 150 255
16.4054 -5.5649 0.0770 100 150 255
16.4216 -5.5663 0.0770 100 150 255
16.4379 -5.5677 0.0770 100 150 255
16.4541 -5.5692 0.0770 100 150 255
16.4704 -5.5706 0.0770 100 150 255
16.4866 -5.5720 0.0770 100 150 255
16.5029 -5.5735 0.0770 100 150 255
16.5191 -5.5749 0.0770 100 150 255
16.5354 -5.5763 0.0770 100 150 255
16.5516 -5.5778 0.0770 100 150 255
16.5679 -5.5792 0.0770 100 150 255
16.5841 -5.5806 0.0770 100 150 255
16.6004 -5.5821 0.0770 100 150 255
16.6166 -5.5835 0.0770 100 150 255
16.6329 -5.5849 0.0770 100 150 255
16.6492 -5.5864 0.0770 100 150 255
16.6654 -5.5878 0.0770 100 150 255
16.6817 -5.5892 0.0770 100 150 255
16.6979 -5.5907 0.0770 100 150 255
16.7142 -5.5921 0.0770 100 150 255
16.7304 -5.5935 0.0770 100 150 255
16.7467 -5.5950 0.0770 100 150 255
16.7629 -5.5964 0.0770 100 150 255
16.7792 -5.5978 0.0770 100 150 255
16.7954 -5.5993 0.0770 100 150 255
16.8117 -5.6007 0.0770 100 150 255
16.8279 -5.6021 0.0770 100 150 255
16.8442 -5.6036 0.0770 100 150 255
16.8604 -5.6050 0.0770 100 150 255
16.8767 -5.6064 0.0770 100 150 255
16.8929 -5.6079 0.0770 100 150 255
16.9092 -5.6093 0.0770 100 150 255
16.9254 -5.6107 0.0770 100 150 255
16.9417 -5.6122 0.0770 100 150 255
16.9579 -5.6136 0.0770 100 150 255
16.9742 -5.6150 0.0770 100 150 255
16.9904 -5.6165 0.0770 100 150 255
17.0067 -5.6179 0.0770 100 150 255
17.0229 -5.6193 0.0770 100 150 255
17.0392 -5.6208 0.0770 100 150 255
17.0554 -5.6222 0.0770 100 150 255
17.0717 -5.6236 0.0770 100 150 255
17.0879 -5.6251 0.0770 100 150 255
17.1042 -5.6265 0.0770 100 150 255
17.1204 -5.6279 0.0770 100 150 255
17.1367 -5.6294 0.0770 100 150 255
17.1529 -5.6308 0.0770 100 150 255
17.1692 -5.6322 0.0770 100 150 255
17.1855 -5.6337 0.0770 100 150 255
17.2017 -5.6351 0.0770 100 150 255
17.2180 -5.6365 0.0770 100 150 255
17.2342 -5.6380 0.0770 100 150 255
17.2505 -5.6394 0.0770 100 150 255
17.2667 -5.6408 0.0770 100 150 255
17.2830 -5.6423 0.0770 100 150 255
17.2992 -5.6437 0.0770 100 150 255
17.3155 -5.6451 0.0770 100 150 255
17.3317 -5.6466 0.0770 100 150 255
17.3480 -5.6480 0.0770 100 150 255
17.3642 -5.6494 0.0770 100 150 255
17.3805 -5.6509 0.0770 100 150 255
17.3967 -5.6523 0.0770 100 150 255
17.4130 -5.6537 0.0770 100 150 255
17.4292 -5.6552 0.0770 100 150 255
17.4455 -5.6566 0.0770 100 150 255
17.4617 -5.6580 0.0770 100 150 255
17.4780 -5.6595 0.0770 100 150 255
17.4942 -5.6609 0.0770 100 150 255
17.5105 -5.6623 0.0770 100 150 255
17.5267 -5.6638 0.0770 100 150 255
17.5430 -5.6652 0.0770 100 150 255
17.5592 -5.6666 0.0770 100 150 255
17.5755 -5.6681 0.0770 100 150 255
17.5917 -5.6695 0.0770 100 150 255
17.6080 -5.6709 0.0770 100 150 255
17.6242 -5.6724 0.0770 100 150 255
17.6405 -5.6738 0.0770 100 150 255
17.6567 -5.6752 0.0770 100 150 255
17.6730 -5.6767 0.0770 100 150 255
17.6892 -5.6781 0.0770 100 150 255
17.7055 -5.6795 0.0770 100 150 255
17.7218 -5.6810 0.0770 100 150 255
17.7380 -5.6824 0.0770 100 150 255
17.7543 -5.6838 0.0770 100 150 255
17.7705 -5.6853 0.0770 100 150 255
17.7868 -5.6867 0.0770 100 150 255
17.8030 -5.6881 0.0770 100 150 255
17.8193 -5.6896 0.0770 100 150 255
17.8355 -5.6910 0.0770 100 150 255
17.8518 -5.6924 0.0770 100 150 255
17.8680 -5.6939 0.0770 100 150 255
17.8843 -5.6953 0.0770 100 150 255
17.9005 -5.6967 0.0770 100 150 255
17.9005 -5.6967 0.0770 100 150 255
17.9036 -5.6620 0.0770 100 150 255
17.9066 -5.6273 0.0770 100 150 255
17.9097 -5.5925 0.0770 100 150 255
17.9128 -5.5578 0.0770 100 150 255
17.9158 -5.5231 0.0770 100 150 255
17.9189 -5.4883 0.0770 100 150 255
17.9220 -5.4536 0.0770 100 150 255
17.9250 -5.4189 0.0770 100 150 255
17.9281 -5.3841 0.0770 100 150 255
17.9312 -5.3494 0.0770 100 150 255
17.9342 -5.3147 0.0770 100 150 255
17.9373 -5.2799 0.0770 100 150 255
17.9403 -5.2452 0.0770 100 150 255
17.9434 -5.2104 0.0770 100 150 255
17.9465 -5.1757 0.0770 100 150 255
17.9495 -5.1410 0.0770 100 150 255
17.9526 -5.1062 0.0770 100 150 255
17.9557 -5.0715 0.0770 100 150 255
17.9587 -5.0368 0.0770 100 150 255
17.9618 -5.0020 0.0770 100 150 255
17.9649 -4.9673 0.0770 100 150 255
17.9679 -4.9326 0.0770 100 150 255
17.9710 -4.8978 0.0770 100 150 255
17.9741 -4.8631 0.0770 100 150 255
17.9771 -4.8284 0.0770 100 150 255
17.9802 -4.7936 0.0770 100 150 255
17.9832 -4.7589 0.0770 100 150 255
17.9863 -4.7241 0.0770 100 150 255
17.9894 -4.6894 0.0770 100 150 255
17.9924 -4.6547 0.0770 100 150 255
17.9955 -4.6199 0.0770 100 150 255
17.9986 -4.5852 0.0770 100 150 255
18.0016 -4.5505 0.0770 100 150 255
18.0047 -4.5157 0.0770 100 150 255
18.0078 -4.4810 0.0770 100 150 255
18.0108 -4.4463 0.0770 100 150 255
18.0139 -4.4115 0.0770 100 150 255
18.0169 -4.3768 0.0770 100 150 255
18.0200 -4.3420 0.0770 100 150 255
18.0231 -4.3073 0.0770 100 150 255
18.0261 -4.2726 0.0770 100 150 255
18.0292 -4.2378 0.0770 100 150 255
18.0323 -4.2031 0.0770 100 150 255
18.0353 -4.1684 0.0770 100 150 255
18.0384 -4.1336 0.0770 100 150 255
18.0415 -4.0989 0.0770 100 150 255
18.0445 -4.0642 0.0770 100 150 255
18.0476 -4.0294 0.0770 100 150 255
18.0507 -3.9947 0.0770 100 150 255
18.0537 -3.9600 0.0770 100 150 255
18.0568 -3.9252 0.0770 100 150 255
18.0598 -3.8905 0.0770 100 150 255
18.0629 -3.8557 0.0770 100 150 255
18.0660 -3.8210 0.0770 100 150 255
18.0690 -3.7863 0.0770 100 150 255
18.0721 -3.7515 0.0770 100 150 255
18.0752 -3.7168 0.0770 100 150 255
18.0782 -3.6821 0.0770 100 150 255
18.0813 -3.6473 0.0770 100 150 255
18.0844 -3.6126 0.0770 100 150 255
18.0874 -3.5779 0.0770 100 150 255
18.0905 -3.5431 0.0770 100 150 255
18.0935 -3.5084 0.0770 100 150 255
18.0966 -3.4737 0.0770 100 150 255
18.0997 -3.4389 0.0770 100 150 255
18.1027 -3.4042 0.0770 100 150 255
18.1058 -3.3694 0.0770 100 150 255
18.1089 -3.3347 0.0770 100 150 255
18.1119 -3.3000 0.0770 100 150 255
18.1150 -3.2652 0.0770 100 150 255
18.1181 -3.2305 0.0770 100 150 255
18.1211 -3.1958 0.0770 100 150 255
18.1242 -3.1610 0.0770 100 150 255
18.1273 -3.1263 0.0770 100 150 255
18.1303 -3.0916 0.0770 100 150 255
18.1334 -3.0568 0.0770 100 150 255
18.1364 -3.0221 0.0770 100 150 255
18.1395 -2.9874 0.0770 100 150 255
18.1426 -2.9526 0.0770 100 150 255
18.1456 -2.9179 0.0770 100 150 255
18.1487 -2.8831 0.0770 100 150 255
18.1518 -2.8484 0.0770 100 150 255
18.1548 -2.8137 0.0770 100 150 255
18.1579 -2.7789 0.0770 100 150 255
18.1610 -2.7442 0.0770 100 150 255
18.1640 -2.7095 0.0770 100 150 255
18.1671 -2.6747 0.0770 100 150 255
18.1701 -2.6400 0.0770 100 150 255
18.1732 -2.6053 0.0770 100 150 255
18.1763 -2.5705 0.0770 100 150 255
18.1793 -2.5358 0.0770 100 150 255
18.1824 -2.5010 0.0770 100 150 255
18.1855 -2.4663 0.0770 100 150 255
18.1885 -2.4316 0.0770 100 150 255
18.1916 -2.3968 0.0770 100 150 255
18.1947 -2.3621 0.0770 100 150 255
18.1977 -2.3274 0.0770 100 150 255
18.2008 -2.2926 0.0770 100 150 255
18.2038 -2.2579 0.0770 100 150 255
18.2069 -2.2232 0.0770 100 150 255
18.2100 -2.1884 0.0770 100 150 255
18.2130 -2.1537 0.0770 100 150 255
18.2161 -2.1190 0.0770 100 150 255
18.2192 -2.0842 0.0770 100 150 255
18.2222 -2.0495 0.0770 100 150 255
18.2253 -2.0147 0.0770 100 150 255
18.2284 -1.9800 0.0770 100 150 255
18.2314 -1.9453 0.0770 100 150 255
18.2345 -1.9105 0.0770 100 150 255
18.2376 -1.8758 0.0770 100 150 255
18.2406 -1.8411 0.0770 100 150 255
18.2437 -1.8063 0.0770 100 150 255
18.2467 -1.7716 0.0770 100 150 255
18.2498 -1.7369 0.0770 100 150 255
18.2529 -1.7021 0.0770 100 150 255
18.2559 -1.6674 0.0770 100 150 255
18.2590 -1.6327 0.0770 100 150 255
18.2621 -1.5979 0.0770 100 150 255
18.2651 -1.5632 0.0770 100 150 255
18.2682 -1.5284 0.0770 100 150 255
18.2713 -1.4937 0.0770 100 150 255
18.2743 -1.4590 0.0770 100 150 255
18.2774 -1.4242 0.0770 100 150 255
18.2804 -1.3895 0.0770 100 150 255
18.2835 -1.3548 0.0770 100 150 255
18.2866 -1.3200 0.0770 100 150 255
18.2896 -1.2853 0.0770 100 150 255
18.2927 -1.2506 0.0770 100 150 255
18.2958 -1.2158 0.0770 100 150 255
18.2988 -1.1811 0.0770 100 150 255
18.3019 -1.1464 0.0770 100 150 255
18.3050 -1.1116 0.0770 100 150 255
18.3080 -1.0769 0.0770 100 150 255
18.3111 -1.0421 0.0770 100 150 255
18.3141 -1.0074 0.0770 100 150 255
18.3172 -0.9727 0.0770 100 150 255
18.3203 -0.9379 0.0770 100 150 255
18.3233 -0.9032 0.0770 100 150 255
18.3264 -0.8685 0.0770 100 150 255
18.3295 -0.8337 0.0770 100 150 255
18.3325 -0.7990 0.0770 100 150 255
18.3356 -0.7643 0.0770 100 150 255
18.3387 -0.7295 0.0770 100 150 255
18.3417 -0.6948 0.0770 100 150 255
18.3448 -0.6600 0.0770 100 150 255
18.3479 -0.6253 0.0770 100 150 255
18.3509 -0.5906 0.0770 100 150 255
18.3540 -0.5558 0.0770 100 150 255
18.3570 -0.5211 0.0770 100 150 255
18.3601 -0.4864 0.0770 100 150 255
18.3632 -0.4516 0.0770 100 150 255
18.3662 -0.4169 0.0770 100 150 255
18.3693 -0.3822 0.0770 100 150 255
18.3724 -0.3474 0.0770 100 150 255
18.3754 -0.3127 0.0770 100 150 255
18.3785 -0.2780 0.0770 100 150 255
18.3816 -0.2432 0.0770 100 150 255
18.3846 -0.2085 0.0770 100 150 255
18.3877 -0.1737 0.0770 100 150 255
18.3907 -0.1390 0.0770 100 150 255
18.3938 -0.1043 0.0770 100 150 255
18.3969 -0.0695 0.0770 100 150 255
18.3999 -0.0348 0.0770 100 150 255
18.4030 -0.0001 0.0770 100 150 255
18.4061 0.0347 0.0770 100 150 255
18.4061 0.0347 0.0770 100 150 255
18.3898 0.0361 0.0770 100 150 255
18.3736 0.0375 0.0770 100 150 255
18.3573 0.0390 0.0770 100 150 255
18.3411 0.0404 0.0770 100 150 255
18.3248 0.0418 0.0770 100 150 255
18.3086 0.0433 0.0770 100 150 255
18.2923 0.0447 0.0770 100 150 255
18.2761 0.0461 0.0770 100 150 255
18.2598 0.0476 0.0770 100 150 255
18.2436 0.0490 0.0770 100 150 255
18.2273 0.0504 0.0770 100 150 255
18.2111 0.0519 0.0770 100 150 255
18.1948 0.0533 0.0770 100 150 255
18.1785 0.0547 0.0770 100 150 255
18.1623 0.0562 0.0770 100 150 255
18.1460 0.0576 0.0770 100 150 255
18.1298 0.0590 0.0770 100 150 255
18.1135 0.0605 0.0770 100 150 255
18.0973 0.0619 0.0770 100 150 255
18.0810 0.0633 0.0770 100 150 255
18.0648 0.0648 0.0770 100 150 255
18.0485 0.0662 0.0770 100 150 255
18.0323 0.0676 0.0770 100 150 255
18.0160 0.0691 0.0770 100 150 255
17.9998 0.0705 0.0770 100 150 255
17.9835 0.0719 0.0770 100 150 255
17.9673 0.0734 0.0770 100 150 255
17.9510 0.0748 0.0770 100 150 255
17.9348 0.0762 0.0770 100 150 255
17.9185 0.0777 0.0770 100 150 255
17.9023 0.0791 0.0770 100 150 255
17.8860 0.0805 0.0770 100 150 255
17.8698 0.0820 0.0770 100 150 255
17.8535 0.0834 0.0770 100 150 255
17.8373 0.0848 0.0770 100 150 255
17.8210 0.0863 0.0770 100 150 255
17.8048 0.0877 0.0770 100 150 255
17.7885 0.0891 0.0770 100 150 255
17.7723 0.0906 0.0770 100 150 255
17.7560 0.0920 0.0770 100 150 255
17.7398 0.0934 0.0770 100 150 255
17.7235 0.0949 0.0770 100 150 255
17.7073 0.0963 0.0770 100 150 255
17.6910 0.0977 0.0770 100 150 255
17.6748 0.0992 0.0770 100 150 255
17.6585 0.1006 0.0770 100 150 255
17.6422 0.1020 0.0770 100 150 255
17.6260 0.1035 0.0770 100 150 255
17.6097 0.1049 0.0770 100 150 255
17.5935 0.1063 0.0770 100 150 255
17.5772 0.1078 0.0770 100 150 255
17.5610 0.1092 0.0770 100 150 255
17.5447 0.1106 0.0770 100 150 255
17.5285 0.1121 0.0770 100 150 255
17.5122 0.1135 0.0770 100 150 255
17.4960 0.1149 0.0770 100 150 255
17.4797 0.1164 0.0770 100 150 255
17.4635 0.1178 0.0770 100 150 255
17.4472 0.1192 0.0770 100 150 255
17.4310 0.1207 0.0770 100 150 255
17.4147 0.1221 0.0770 100 150 255
17.3985 0.1235 0.0770 100 150 255
17.3822 0.1250 0.0770 100 150 255
17.3660 0.1264 0.0770 100 150 255
17.3497 0.1278 0.0770 100 150 255
17.3335 0.1293 0.0770 100 150 255
17.3172 0.1307 0.0770 100 150 255
17.3010 0.1321 0.0770 100 150 255
17.2847 0.1336 0.0770 100 150 255
17.2685 0.1350 0.0770 100 150 255
17.2522 0.1364 0.0770 100 150 255
17.2360 0.1379 0.0770 100 150 255
17.2197 0.1393 0.0770 100 150 255
17.2035 0.1407 0.0770 100 150 255
17.1872 0.1422 0.0770 100 150 255
17.1710 0.1436 0.0770 100 150 255
17.1547 0.1450 0.0770 100 150 255
17.1385 0.1465 0.0770 100 150 255
17.1222 0.1479 0.0770 100 150 255
17.1059 0.1493 0.0770 100 150 255
17.0897 0.1508 0.0770 100 150 255
17.0734 0.1522 0.0770 100 150 255
17.0572 0.1536 0.0770 100 150 255
17.0409 0.1551 0.0770 100 150 255
17.0247 0.1565 0.0770 100 150 255
17.0084 0.1579 0.0770 100 150 255
16.9922 0.1594 0.0770 100 150 255
16.9759 0.1608 0.0770 100 150 255
16.9597 0.1622 0.0770 100 150 255
16.9434 0.1637 0.0770 100 150 255
16.9272 0.1651 0.0770 100 150 255
16.9109 0.1665 0.0770 100 150 255
16.8947 0.1680 0.0770 100 150 255
16.8784 0.1694 0.0770 100 150 255
16.8622 0.1708 0.0770 100 150 255
16.8459 0.1723 0.0770 100 150 255
16.8297 0.1737 0.0770 100 150 255
16.8134 0.1752 0.0770 100 150 255
16.7972 0.1766 0.0770 100 150 255
16.7809 0.1780 0.0770 100 150 255
16.7647 0.1795 0.0770 100 150 255
16.7484 0.1809 0.0770 100 150 255
16.7322 0.1823 0.0770 100 150 255
16.7159 0.1838 0.0770 100 150 255
16.6997 0.1852 0.0770 100 150 255
16.6834 0.1866 0.0770 100 150 255
16.6672 0.1881 0.0770 100 150 255
16.6509 0.1895 0.0770 100 150 255
16.6347 0.1909 0.0770 100 150 255
16.6184 0.1924 0.0770 100 150 255
16.6022 0.1938 0.0770 100 150 255
16.5859 0.1952 0.0770 100 150 255
16.5696 0.1967 0.0770 100 150 255
16.5534 0.1981 0.0770 100 150 255
16.5371 0.1995 0.0770 100 150 255
16.5209 0.2010 0.0770 100 150 255
16.5046 0.2024 0.0770 100 150 255
16.4884 0.2038 0.0770 100 150 255
16.4721 0.2053 0.0770 100 150 255
16.4559 0.2067 0.0770 100 150 255
16.4396 0.2081 0.0770 100 150 255
16.4234 0.2096 0.0770 100 150 255
16.4071 0.2110 0.0770 100 150 255
16.3909 0.2124 0.0770 100 150 255
16.3746 0.2139 0.0770 100 150 255
16.3584 0.2153 0.0770 100 150 255
16.3421 0.2167 0.0770 100 150 255
16.3259 0.2182 0.0770 100 150 255
16.3096 0.2196 0.0770 100 150 255
16.2934 0.2210 0.0770 100 150 255
16.2771 0.2225 0.0770 100 150 255
16.2609 0.2239 0.0770 100 150 255
16.2446 0.2253 0.0770 100 150 255
16.2284 0.2268 0.0770 100 150 255
16.2121 0.2282 0.0770 100 150 255
16.1959 0.2296 0.0770 100 150 255
16.1796 0.2311 0.0770 100 150 255
16.1634 0.2325 0.0770 100 150 255
16.1471 0.2339 0.0770 100 150 255
16.1309 0.2354 0.0770 100 150 255
16.1146 0.2368 0.0770 100 150 255
16.0984 0.2382 0.0770 100 150 255
16.0821 0.2397 0.0770 100 150 255
16.0659 0.2411 0.0770 100 150 255
16.0496 0.2425 0.0770 100 150 255
16.0333 0.2440 0.0770 100 150 255
16.0171 0.2454 0.0770 100 150 255
16.0008 0.2468 0.0770 100 150 255
15.9846 0.2483 0.0770 100 150 255
15.9683 0.2497 0.0770 100 150 255
15.9521 0.2511 0.0770 100 150 255
15.9358 0.2526 0.0770 100 150 255
15.9196 0.2540 0.0770 100 150 255
15.9033 0.2554 0.0770 100 150 255
15.8871 0.2569 0.0770 100 150 255
15.8708 0.2583 0.0770 100 150 255
15.8546 0.2597 0.0770 100 150 255
15.8383 0.2612 0.0770 100 150 255
15.8221 0.2626 0.0770 100 150 255
15.8058 0.2640 0.0770 100 150 255
15.7896 0.2655 0.0770 100 150 255
15.7733 0.2669 0.0770 100 150 255
15.7571 0.2683 0.0770 100 150 255
15.7408 0.2698 0.0770 100 150 255
15.7246 0.2712 0.0770 100 150 255
15.7246 0.2712 2.3159 100 150 255
15.7215 0.2365 2.3159 100 150 255
15.7184 0.2017 2.3159 100 150 255
15.7154 0.1670 2.3159 100 150 255
15.7123 0.1323 2.3159 100 150 255
15.7093 0.0975 2.3159 100 150 255
15.7062 0.0628 2.3159 100 150 255
15.7031 0.0280 2.3159 100 150 255
15.7001 -0.0067 2.3159 100 150 255
15.6970 -0.0414 2.3159 100 150 255
15.6939 -0.0762 2.3159 100 150 255
15.6909 -0.1109 2.3159 100 150 255
15.6878 -0.1456 2.3159 100 150 255
15.6847 -0.1804 2.3159 100 150 255
15.6817 -0.2151 2.3159 100 150 255
15.6786 -0.2498 2.3159 100 150 255
15.6755 -0.2846 2.3159 100 150 255
15.6725 -0.3193 2.3159 100 150 255
15.6694 -0.3541 2.3159 100 150 255
15.6664 -0.3888 2.3159 100 150 255
15.6633 -0.4235 2.3159 100 150 255
15.6602 -0.4583 2.3159 100 150 255
15.6572 -0.4930 2.3159 100 150 255
15.6541 -0.5277 2.3159 100 150 255
15.6510 -0.5625 2.3159 100 150 255
15.6480 -0.5972 2.3159 100 150 255
15.6449 -0.6319 2.3159 100 150 255
15.6418 -0.6667 2.3159 100 150 255
15.6388 -0.7014 2.3159 100 150 255
15.6357 -0.7361 2.3159 100 150 255
15.6327 -0.7709 2.3159 100 150 255
15.6296 -0.8056 2.3159 100 150 255
15.6265 -0.8404 2.3159 100 150 255
15.6235 -0.8751 2.3159 100 150 255
15.6204 -0.9098 2.3159 100 150 255
15.6173 -0.9446 2.3159 100 150 255
15.6143 -0.9793 2.3159 100 150 255
15.6112 -1.0140 2.3159 100 150 255
15.6081 -1.0488 2.3159 100 150 255
15.6051 -1.0835 2.3159 100 150 255
15.6020 -1.1182 2.3159 100 150 255
15.5989 -1.1530 2.3159 100 150 255
15.5959 -1.1877 2.3159 100 150 255
15.5928 -1.2224 2.3159 100 150 255
15.5898 -1.2572 2.3159 100 150 255
15.5867 -1.2919 2.3159 100 150 255
15.5836 -1.3267 2.3159 100 150 255
15.5806 -1.3614 2.3159 100 150 255
15.5775 -1.3961 2.3159 100 150 255
15.5744 -1.4309 2.3159 100 150 255
15.5714 -1.4656 2.3159 100 150 255
15.5683 -1.5003 2.3159 100 150 255
15.5652 -1.5351 2.3159 100 150 255
15.5622 -1.5698 2.3159 100 150 255
15.5591 -1.6045 2.3159 100 150 255
15.5561 -1.6393 2.3159 100 150 255
15.5530 -1.6740 2.3159 100 150 255
15.5499 -1.7087 2.3159 100 150 255
15.5469 -1.7435 2.3159 100 150 255
15.5438 -1.7782 2.3159 100 150 255
15.5407 -1.8130 2.3159 100 150 255
15.5377 -1.8477 2.3159 100 150 255
15.5346 -1.8824 2.3159 100 150 255
15.5315 -1.9172 2.3159 100 150 255
15.5285 -1.9519 2.3159 100 150 255
15.5254 -1.9866 2.3159 100 150 255
15.5224 -2.0214 2.3159 100 150 255
15.5193 -2.0561 2.3159 100 150 255
15.5162 -2.0908 2.3159 100 150 255
15.5132 -2.1256 2.3159 100 150 255
15.5101 -2.1603 2.3159 100 150 255
15.5070 -2.1951 2.3159 100 150 255
15.5040 -2.2298 2.3159 100 150 255
15.5009 -2.2645 2.3159 100 150 255
15.4978 -2.2993 2.3159 100 150 255
15.4948 -2.3340 2.3159 100 150 255
15.4917 -2.3687 2.3159 100 150 255
15.4886 -2.4035 2.3159 100 150 255
15.4856 -2.4382 2.3159 100 150 255
15.4825 -2.4729 2.3159 100 150 255
15.4795 -2.5077 2.3159 100 150 255
15.4764 -2.5424 2.3159 100 150 255
15.4733 -2.5771 2.3159 100 150 255
15.4703 -2.6119 2.3159 100 150 255
15.4672 -2.6466 2.3159 100 150 255
15.4641 -2.6814 2.3159 100 150 255
15.4611 -2.7161 2.3159 100 150 255
15.4580 -2.7508 2.3159 100 150 255
15.4549 -2.7856 2.3159 100 150 255
15.4519 -2.8203 2.3159 100 150 255
15.4488 -2.8550 2.3159 100 150 255
15.4458 -2.8898 2.3159 100 150 255
15.4427 -2.9245 2.3159 100 150 255
15.4396 -2.9592 2.3159 100 150 255
15.4366 -2.9940 2.3159 100 150 255
15.4335 -3.0287 2.3159 100 150 255
15.4304 -3.0634 2.3159 100 150 255
15.4274 -3.0982 2.3159 100 150 255
15.4243 -3.1329 2.3159 100 150 255
15.4212 -3.1677 2.3159 100 150 255
15.4182 -3.2024 2.3159 100 150 255
15.4151 -3.2371 2.3159 100 150 255
15.4120 -3.2719 2.3159 100 150 255
15.4090 -3.3066 2.3159 100 150 255
15.4059 -3.3413 2.3159 100 150 255
15.4029 -3.3761 2.3159 100 150 255
15.3998 -3.4108 2.3159 100 150 255
15.3967 -3.4455 2.3159 100 150 255
15.3937 -3.4803 2.3159 100 150 255
15.3906 -3.5150 2.3159 100 150 255
15.3875 -3.5497 2.3159 100 150 255
15.3845 -3.5845 2.3159 100 150 255
15.3814 -3.6192 2.3159 100 150 255
15.3783 -3.6540 2.3159 100 150 255
15.3753 -3.6887 2.3159 100 150 255
15.3722 -3.7234 2.3159 100 150 255
15.3692 -3.7582 2.3159 100 150 255
15.3661 -3.7929 2.3159 100 150 255
15.3630 -3.8276 2.3159 100 150 255
15.3600 -3.8624 2.3159 100 150 255
15.3569 -3.8971 2.3159 100 150 255
15.3538 -3.9318 2.3159 100 150 255
15.3508 -3.9666 2.3159 100 150 255
15.3477 -4.0013 2.3159 100 150 255
15.3446 -4.0361 2.3159 100 150 255
15.3416 -4.0708 2.3159 100 150 255
15.3385 -4.1055 2.3159 100 150 255
15.3354 -4.1403 2.3159 100 150 255
15.3324 -4.1750 2.3159 100 150 255
15.3293 -4.2097 2.3159 100 150 255
15.3263 -4.2445 2.3159 100 150 255
15.3232 -4.2792 2.3159 100 150 255
15.3201 -4.3139 2.3159 100 150 255
15.3171 -4.3487 2.3159 100 150 255
15.3140 -4.3834 2.3159 100 150 255
15.3109 -4.4181 2.3159 100 150 255
15.3079 -4.4529 2.3159 100 150 255
15.3048 -4.4876 2.3159 100 150 255
15.3017 -4.5224 2.3159 100 150 255
15.2987 -4.5571 2.3159 100 150 255
15.2956 -4.5918 2.3159 100 150 255
15.2926 -4.6266 2.3159 100 150 255
15.2895 -4.6613 2.3159 100 150 255
15.2864 -4.6960 2.3159 100 150 255
15.2834 -4.7308 2.3159 100 150 255
15.2803 -4.7655 2.3159 100 150 255
15.2772 -4.8002 2.3159 100 150 255
15.2742 -4.8350 2.3159 100 150 255
15.2711 -4.8697 2.3159 100 150 255
15.2680 -4.9044 2.3159 100 150 255
15.2650 -4.9392 2.3159 100 150 255
15.2619 -4.9739 2.3159 100 150 255
15.2589 -5.0087 2.3159 100 150 255
15.2558 -5.0434 2.3159 100 150 255
15.2527 -5.0781 2.3159 100 150 255
15.2497 -5.1129 2.3159 100 150 255
15.2466 -5.1476 2.3159 100 150 255
15.2435 -5.1823 2.3159 100 150 255
15.2405 -5.2171 2.3159 100 150 255
15.2374 -5.2518 2.3159 100 150 255
15.2343 -5.2865 2.3159 100 150 255
15.2313 -5.3213 2.3159 100 150 255
15.2282 -5.3560 2.3159 100 150 255
15.2251 -5.3907 2.3159 100 150 255
15.2221 -5.4255 2.3159 100 150 255
15.2190 -5.4602 2.3159 100 150 255
15.2190 -5.4602 2.3159 100 150 255
15.2353 -5.4617 2.3159 100 150 255
15.2515 -5.4631 2.3159 100 150 255
15.2678 -5.4645 2.3159 100 150 255
15.2840 -5.4660 2.3159 100 150 255
15.3003 -5.4674 2.3159 100 150 255
15.3165 -5.4688 2.3159 100 150 255
15.3328 -5.4703 2.3159 100 150 255
15.3490 -5.4717 2.3159 100 150 255
15.3653 -5.4731 2.3159 100 150 255
15.3815 -5.4746 2.3159 100 150 255
15.3978 -5.4760 2.3159 100 150 255
15.4140 -5.4774 2.3159 100 150 255
15.4303 -5.4789 2.3159 100 150 255
15.4465 -5.4803 2.3159 100 150 255
15.4628 -5.4817 2.3159 100 150 255
15.4790 -5.4832 2.3159 100 150 255
15.4953 -5.4846 2.3159 100 150 255
15.5115 -5.4860 2.3159 100 150 255
15.5278 -5.4875 2.3159 100 150 255
15.5441 -5.4889 2.3159 100 150 255
15.5603 -5.4903 2.3159 100 150 255
15.5766 -5.4918 2.3159 100 150 255
15.5928 -5.4932 2.3159 100 150 255
15.6091 -5.4946 2.3159 100 150 255
15.6253 -5.4961 2.3159 100 150 255
15.6416 -5.4975 2.3159 100 150 255
15.6578 -5.4989 2.3159 100 150 255
15.6741 -5.5004 2.3159 100 150 255
15.6903 -5.5018 2.3159 100 150 255
15.7066 -5.5032 2.3159 100 150 255
15.7228 -5.5047 2.3159 100 150 255
15.7391 -5.5061 2.3159 100 150 255
15.7553 -5.5075 2.3159 100 150 255
15.7716 -5.5090 2.3159 100 150 255
15.7878 -5.5104 2.3159 100 150 255
15.8041 -5.5118 2.3159 100 150 255
15.8203 -5.5133 2.3159 100 150 255
15.8366 -5.5147 2.3159 100 150 255
15.8528 -5.5161 2.3159 100 150 255
15.8691 -5.5176 2.3159 100 150 255
15.8853 -5.5190 2.3159 100 150 255
15.9016 -5.5204 2.3159 100 150 255
15.9178 -5.5219 2.3159 100 150 255
15.9341 -5.5233 2.3159 100 150 255
15.9503 -5.5247 2.3159 100 150 255
15.9666 -5.5262 2.3159 100 150 255
15.9828 -5.5276 2.3159 100 150 255
15.9991 -5.5290 2.3159 100 150 255
16.0153 -5.5305 2.3159 100 150 255
16.0316 -5.5319 2.3159 100 150 255
16.0478 -5.5333 2.3159 100 150 255
16.0641 -5.5348 2.3159 100 150 255
16.0803 -5.5362 2.3159 100 150 255
16.0966 -5.5376 2.3159 100 150 255
16.1129 -5.5391 2.3159 100 150 255
16.1291 -5.5405 2.3159 100 150 255
16.1454 -5.5419 2.3159 100 150 255
16.1616 -5.5434 2.3159 100 150 255
16.1779 -5.5448 2.3159 100 150 255
16.1941 -5.5462 2.3159 100 150 255
16.2104 -5.5477 2.3159 100 150 255
16.2266 -5.5491 2.3159 100 150 255
16.2429 -5.5505 2.3159 100 150 255
16.2591 -5.5520 2.3159 100 150 255
16.2754 -5.5534 2.3159 100 150 255
16.2916 -5.5548 2.3159 100 150 255
16.3079 -5.5563 2.3159 100 150 255
16.3241 -5.5577 2.3159 100 150 255
16.3404 -5.5591 2.3159 100 150 255
16.3566 -5.5606 2.3159 100 150 255
16.3729 -5.5620 2.3159 100 150 255
16.3891 -5.5634 2.3159 100 150 255
16.4054 -5.5649 2.3159 100 150 255
16.4216 -5.5663 2.3159 100 150 255
16.4379 -5.5677 2.3159 100 150 255
16.4541 -5.5692 2.3159 100 150 255
16.4704 -5.5706 2.3159 100 150 255
16.4866 -5.5720 2.3159 100 150 255
16.5029 -5.5735 2.3159 100 150 255
16.5191 -5.5749 2.3159 100 150 255
16.5354 -5.5763 2.3159 100 150 255
16.5516 -5.5778 2.3159 100 150 255
16.5679 -5.5792 2.3159 100 150 255
16.5841 -5.5806 2.3159 100 150 255
16.6004 -5.5821 2.3159 100 150 255
16.6166 -5.5835 2.3159 100 150 255
16.6329 -5.5849 2.3159 100 150 255
16.6492 -5.5864 2.3159 100 150 255
16.6654 -5.5878 2.3159 100 150 255
16.6817 -5.5892 2.3159 100 150 255
16.6979 -5.5907 2.3159 100 150 255
16.7142 -5.5921 2.3159 100 150 255
16.7304 -5.5935 2.3159 100 150 255
16.7467 -5.5950 2.3159 100 150 255
16.7629 -5.5964 2.3159 100 150 255
16.7792 -5.5978 2.3159 100 150 255
16.7954 -5.5993 2.3159 100 150 255
16.8117 -5.6007 2.3159 100 150 255
16.8279 -5.6021 2.3159 100 150 255
16.8442 -5.6036 2.3159 100 150 255
16.8604 -5.6050 2.3159 100 150 255
16.8767 -5.6064 2.3159 100 150 255
16.8929 -5.6079 2.3159 100 150 255
16.9092 -5.6093 2.3159 100 150 255
16.9254 -5.6107 2.3159 100 150 255
16.9417 -5.6122 2.3159 100 150 255
16.9579 -5.6136 2.3159 100 150 255
16.9742 -5.6150 2.3159 100 150 255
16.9904 -5.6165 2.3159 100 150 255
17.0067 -5.6179 2.3159 100 150 255
17.0229 -5.6193 2.3159 100 150 255
17.0392 -5.6208 2.3159 100 150 255
17.0554 -5.6222 2.3159 100 150 255
17.0717 -5.6236 2.3159 100 150 255
17.0879 -5.6251 2.3159 100 150 255
17.1042 -5.6265 2.3159 100 150 255
17.1204 -5.6279 2.3159 100 150 255
17.1367 -5.6294 2.3159 100 150 255
17.1529 -5.6308 2.3159 100 150 255
17.1692 -5.6322 2.3159 100 150 255
17.1855 -5.6337 2.3159 100 150 255
17.2017 -5.6351 2.3159 100 150 255
17.2180 -5.6365 2.3159 100 150 255
17.2342 -5.6380 2.3159 100 150 255
17.2505 -5.6394 2.3159 100 150 255
17.2667 -5.6408 2.3159 100 150 255
17.2830 -5.6423 2.3159 100 150 255
17.2992 -5.6437 2.3159 100 150 255
17.3155 -5.6451 2.3159 100 150 255
17.3317 -5.6466 2.3159 100 150 255
17.3480 -5.6480 2.3159 100 150 255
17.3642 -5.6494 2.3159 100 150 255
17.3805 -5.6509 2.3159 100 150 255
17.3967 -5.6523 2.3159 100 150 255
17.4130 -5.6537 2.3159 100 150 255
17.4292 -5.6552 2.3159 100 150 255
17.4455 -5.6566 2.3159 100 150 255
17.4617 -5.6580 2.3159 100 150 255
17.4780 -5.6595 2.3159 100 150 255
17.4942 -5.6609 2.3159 100 150 255
17.5105 -5.6623 2.3159 100 150 255
17.5267 -5.6638 2.3159 100 150 255
17.5430 -5.6652 2.3159 100 150 255
17.5592 -5.6666 2.3159 100 150 255
17.5755 -5.6681 2.3159 100 150 255
17.5917 -5.6695 2.3159 100 150 255
17.6080 -5.6709 2.3159 100 150 255
17.6242 -5.6724 2.3159 100 150 255
17.6405 -5.6738 2.3159 100 150 255
17.6567 -5.6752 2.3159 100 150 255
17.6730 -5.6767 2.3159 100 150 255
17.6892 -5.6781 2.3159 100 150 255
17.7055 -5.6795 2.3159 100 150 255
17.7218 -5.6810 2.3159 100 150 255
17.7380 -5.6824 2.3159 100 150 255
17.7543 -5.6838 2.3159 100 150 255
17.7705 -5.6853 2.3159 100 150 255
17.7868 -5.6867 2.3159 100 150 255
17.8030 -5.6881 2.3159 100 150 255
17.8193 -5.6896 2.3159 100 150 255
17.8355 -5.6910 2.3159 100 150 255
17.8518 -5.6924 2.3159 100 150 255
17.8680 -5.6939 2.3159 100 150 255
17.8843 -5.6953 2.3159 100 150 255
17.9005 -5.6967 2.3159 100 150 255
17.9005 -5.6967 2.3159 100 150 255
17.9036 -5.6620 2.3159 100 150 255
17.9066 -5.6273 2.3159 100 150 255
17.9097 -5.5925 2.3159 100 150 255
17.9128 -5.5578 2.3159 100 150 255
17.9158 -5.5231 2.3159 100 150 255
17.9189 -5.4883 2.3159 100 150 255
17.9220 -5.4536 2.3159 100 150 255
17.9250 -5.4189 2.3159 100 150 255
17.9281 -5.3841 2.3159 100 150 255
17.9312 -5.3494 2.3159 100 150 255
17.9342 -5.3147 2.3159 100 150 255
17.9373 -5.2799 2.3159 100 150 255
17.9403 -5.2452 2.3159 100 150 255
17.9434 -5.2104 2.3159 100 150 255
17.9465 -5.1757 2.3159 100 150 255
17.9495 -5.1410 2.3159 100 150 255
17.9526 -5.1062 2.3159 100 150 255
17.9557 -5.0715 2.3159 100 150 255
17.9587 -5.0368 2.3159 100 150 255
17.9618 -5.0020 2.3159 100 150 255
17.9649 -4.9673 2.3159 100 150 255
17.9679 -4.9326 2.3159 100 150 255
17.9710 -4.8978 2.3159 100 150 255
17.9741 -4.8631 2.3159 100 150 255
17.9771 -4.8284 2.3159 100 150 255
17.9802 -4.7936 2.3159 100 150 255
17.9832 -4.7589 2.3159 100 150 255
17.9863 -4.7241 2.3159 100 150 255
17.9894 -4.6894 2.3159 100 150 255
17.9924 -4.6547 2.3159 100 150 255
17.9955 -4.6199 2.3159 100 150 255
17.9986 -4.5852 2.3159 100 150 255
18.0016 -4.5505 2.3159 100 150 255
18.0047 -4.5157 2.3159 100 150 255
18.0078 -4.4810 2.3159 100 150 255
18.0108 -4.4463 2.3159 100 150 255
18.0139 -4.4115 2.3159 100 150 255
18.0169 -4.3768 2.3159 100 150 255
18.0200 -4.3420 2.3159 100 150 255
18.0231 -4.3073 2.3159 100 150 255
18.0261 -4.2726 2.3159 100 150 255
18.0292 -4.2378 2.3159 100 150 255
18.0323 -4.2031 2.3159 100 150 255
18.0353 -4.1684 2.3159 100 150 255
18.0384 -4.1336 2.3159 100 150 255
18.0415 -4.0989 2.3159 100 150 255
18.0445 -4.0642 2.3159 100 150 255
18.0476 -4.0294 2.3159 100 150 255
18.0507 -3.9947 2.3159 100 150 255
18.0537 -3.9600 2.3159 100 150 255
18.0568 -3.9252 2.3159 100 150 255
18.0598 -3.8905 2.3159 100 150 255
18.0629 -3.8557 2.3159 100 150 255
18.0660 -3.8210 2.3159 100 150 255
18.0690 -3.7863 2.3159 100 150 255
18.0721 -3.7515 2.3159 100 150 255
18.0752 -3.7168 2.3159 100 150 255
18.0782 -3.6821 2.3159 100 150 255
18.0813 -3.6473 2.3159 100 150 255
18.0844 -3.6126 2.3159 100 150 255
18.0874 -3.5779 2.3159 100 150 255
18.0905 -3.5431 2.3159 100 150 255
18.0935 -3.5084 2.3159 100 150 255
18.0966 -3.4737 2.3159 100 150 255
18.0997 -3.4389 2.3159 100 150 255
18.1027 -3.4042 2.3159 100 150 255
18.1058 -3.3694 2.3159 100 150 255
18.1089 -3.3347 2.3159 100 150 255
18.1119 -3.3000 2.3159 100 150 255
18.1150 -3.2652 2.3159 100 150 255
18.1181 -3.2305 2.3159 100 150 255
18.1211 -3.1958 2.3159 100 150 255
18.1242 -3.1610 2.3159 100 150 255
18.1273 -3.1263 2.3159 100 150 255
18.1303 -3.0916 2.3159 100 150 255
18.1334 -3.0568 2.3159 100 150 255
18.1364 -3.0221 2.3159 100 150 255
18.1395 -2.9874 2.3159 100 150 255
18.1426 -2.9526 2.3159 100 150 255
18.1456 -2.9179 2.3159 100 150 255
18.1487 -2.8831 2.3159 100 150 255
18.1518 -2.8484 2.3159 100 150 255
18.1548 -2.8137 2.3159 100 150 255
18.1579 -2.7789 2.3159 100 150 255
18.1610 -2.7442 2.3159 100 150 255
18.1640 -2.7095 2.3159 100 150 255
18.1671 -2.6747 2.3159 100 150 255
18.1701 -2.6400 2.3159 100 150 255
18.1732 -2.6053 2.3159 100 150 255
18.1763 -2.5705 2.3159 100 150 255
18.1793 -2.5358 2.3159 100 150 255
18.1824 -2.5010 2.3159 100 150 255
18.1855 -2.4663 2.3159 100 150 255
18.1885 -2.4316 2.3159 100 150 255
18.1916 -2.3968 2.3159 100 150 255
18.1947 -2.3621 2.3159 100 150 255
18.1977 -2.3274 2.3159 100 150 255
18.2008 -2.2926 2.3159 100 150 255
18.2038 -2.2579 2.3159 100 150 255
18.2069 -2.2232 2.3159 100 150 255
18.2100 -2.1884 2.3159 100 150 255
18.2130 -2.1537 2.3159 100 150 255
18.2161 -2.1190 2.3159 100 150 255
18.2192 -2.0842 2.3159 100 150 255
18.2222 -2.0495 2.3159 100 150 255
18.2253 -2.0147 2.3159 100 150 255
18.2284 -1.9800 2.3159 100 150 255
18.2314 -1.9453 2.3159 100 150 255
18.2345 -1.9105 2.3159 100 150 255
18.2376 -1.8758 2.3159 100 150 255
18.2406 -1.8411 2.3159 100 150 255
18.2437 -1.8063 2.3159 100 150 255
18.2467 -1.7716 2.3159 100 150 255
18.2498 -1.7369 2.3159 100 150 255
18.2529 -1.7021 2.3159 100 150 255
18.2559 -1.6674 2.3159 100 150 255
18.2590 -1.6327 2.3159 100 150 255
18.2621 -1.5979 2.3159 100 150 255
18.2651 -1.5632 2.3159 100 150 255
18.2682 -1.5284 2.3159 100 150 255
18.2713 -1.4937 2.3159 100 150 255
18.2743 -1.4590 2.3159 100 150 255
18.2774 -1.4242 2.3159 100 150 255
18.2804 -1.3895 2.3159 100 150 255
18.2835 -1.3548 2.3159 100 150 255
18.2866 -1.3200 2.3159 100 150 255
18.2896 -1.2853 2.3159 100 150 255
18.2927 -1.2506 2.3159 100 150 255
18.2958 -1.2158 2.3159 100 150 255
18.2988 -1.1811 2.3159 100 150 255
18.3019 -1.1464 2.3159 100 150 255
18.3050 -1.1116 2.3159 100 150 255
18.3080 -1.0769 2.3159 100 150 255
18.3111 -1.0421 2.3159 100 150 255
18.3141 -1.0074 2.3159 100 150 255
18.3172 -0.9727 2.3159 100 150 255
18.3203 -0.9379 2.3159 100 150 255
18.3233 -0.9032 2.3159 100 150 255
18.3264 -0.8685 2.3159 100 150 255
18.3295 -0.8337 2.3159 100 150 255
18.3325 -0.7990 2.3159 100 150 255
18.3356 -0.7643 2.3159 100 150 255
18.3387 -0.7295 2.3159 100 150 255
18.3417 -0.6948 2.3159 100 150 255
18.3448 -0.6600 2.3159 100 150 255
18.3479 -0.6253 2.3159 100 150 255
18.3509 -0.5906 2.3159 100 150 255
18.3540 -0.5558 2.3159 100 150 255
18.3570 -0.5211 2.3159 100 150 255
18.3601 -0.4864 2.3159 100 150 255
18.3632 -0.4516 2.3159 100 150 255
18.3662 -0.4169 2.3159 100 150 255
18.3693 -0.3822 2.3159 100 150 255
18.3724 -0.3474 2.3159 100 150 255
18.3754 -0.3127 2.3159 100 150 255
18.3785 -0.2780 2.3159 100 150 255
18.3816 -0.2432 2.3159 100 150 255
18.3846 -0.2085 2.3159 100 150 255
18.3877 -0.1737 2.3159 100 150 255
18.3907 -0.1390 2.3159 100 150 255
18.3938 -0.1043 2.3159 100 150 255
18.3969 -0.0695 2.3159 100 150 255
18.3999 -0.0348 2.3159 100 150 255
18.4030 -0.0001 2.3159 100 150 255
18.4061 0.0347 2.3159 100 150 255
18.4061 0.0347 2.3159 100 150 255
18.3898 0.0361 2.3159 100 150 255
18.3736 0.0375 2.3159 100 150 255
18.3573 0.0390 2.3159 100 150 255
18.3411 0.0404 2.3159 100 150 255
18.3248 0.0418 2.3159 100 150 255
18.3086 0.0433 2.3159 100 150 255
18.2923 0.0447 2.3159 100 150 255
18.2761 0.0461 2.3159 100 150 255
18.2598 0.0476 2.3159 100 150 255
18.2436 0.0490 2.3159 100 150 255
18.2273 0.0504 2.3159 100 150 255
18.2111 0.0519 2.3159 100 150 255
18.1948 0.0533 2.3159 100 150 255
18.1785 0.0547 2.3159 100 150 255
18.1623 0.0562 2.3159 100 150 255
18.1460 0.0576 2.3159 100 150 255
18.1298 0.0590 2.3159 100 150 255
18.1135 0.0605 2.3159 100 150 255
18.0973 0.0619 2.3159 100 150 255
18.0810 0.0633 2.3159 100 150 255
18.0648 0.0648 2.3159 100 150 255
18.0485 0.0662 2.3159 100 150 255
18.0323 0.0676 2.3159 100 150 255
18.0160 0.0691 2.3159 100 150 255
17.9998 0.0705 2.3159 100 150 255
17.9835 0.0719 2.3159 100 150 255
17.9673 0.0734 2.3159 100 150 255
17.9510 0.0748 2.3159 100 150 255
17.9348 0.0762 2.3159 100 150 255
17.9185 0.0777 2.3159 100 150 255
17.9023 0.0791 2.3159 100 150 255
17.8860 0.0805 2.3159 100 150 255
17.8698 0.0820 2.3159 100 150 255
17.8535 0.0834 2.3159 100 150 255
17.8373 0.0848 2.3159 100 150 255
17.8210 0.0863 2.3159 100 150 255
17.8048 0.0877 2.3159 100 150 255
17.7885 0.0891 2.3159 100 150 255
17.7723 0.0906 2.3159 100 150 255
17.7560 0.0920 2.3159 100 150 255
17.7398 0.0934 2.3159 100 150 255
17.7235 0.0949 2.3159 100 150 255
17.7073 0.0963 2.3159 100 150 255
17.6910 0.0977 2.3159 100 150 255
17.6748 0.0992 2.3159 100 150 255
17.6585 0.1006 2.3159 100 150 255
17.6422 0.1020 2.3159 100 150 255
17.6260 0.1035 2.3159 100 150 255
17.6097 0.1049 2.3159 100 150 255
17.5935 0.1063 2.3159 100 150 255
17.5772 0.1078 2.3159 100 150 255
17.5610 0.1092 2.3159 100 150 255
17.5447 0.1106 2.3159 100 150 255
17.5285 0.1121 2.3159 100 150 255
17.5122 0.1135 2.3159 100 150 255
17.4960 0.1149 2.3159 100 150 255
17.4797 0.1164 2.3159 100 150 255
17.4635 0.1178 2.3159 100 150 255
17.4472 0.1192 2.3159 100 150 255
17.4310 0.1207 2.3159 100 150 255
17.4147 0.1221 2.3159 100 150 255
17.3985 0.1235 2.3159 100 150 255
17.3822 0.1250 2.3159 100 150 255
17.3660 0.1264 2.3159 100 150 255
17.3497 0.1278 2.3159 100 150 255
17.3335 0.1293 2.3159 100 150 255
17.3172 0.1307 2.3159 100 150 255
17.3010 0.1321 2.3159 100 150 255
17.2847 0.1336 2.3159 100 150 255
17.2685 0.1350 2.3159 100 150 255
17.2522 0.1364 2.3159 100 150 255
17.2360 0.1379 2.3159 100 150 255
17.2197 0.1393 2.3159 100 150 255
17.2035 0.1407 2.3159 100 150 255
17.1872 0.1422 2.3159 100 150 255
17.1710 0.1436 2.3159 100 150 255
17.1547 0.1450 2.3159 100 150 255
17.1385 0.1465 2.3159 100 150 255
17.1222 0.1479 2.3159 100 150 255
17.1059 0.1493 2.3159 100 150 255
17.0897 0.1508 2.3159 100 150 255
17.0734 0.1522 2.3159 100 150 255
17.0572 0.1536 2.3159 100 150 255
17.0409 0.1551 2.3159 100 150 255
17.0247 0.1565 2.3159 100 150 255
17.0084 0.1579 2.3159 100 150 255
16.9922 0.1594 2.3159 100 150 255
16.9759 0.1608 2.3159 100 150 255
16.9597 0.1622 2.3159 100 150 255
16.9434 0.1637 2.3159 100 150 255
16.9272 0.1651 2.3159 100 150 255
16.9109 0.1665 2.3159 100 150 255
16.8947 0.1680 2.3159 100 150 255
16.8784 0.1694 2.3159 100 150 255
16.8622 0.1708 2.3159 100 150 255
16.8459 0.1723 2.3159 100 150 255
16.8297 0.1737 2.3159 100 150 255
16.8134 0.1752 2.3159 100 150 255
16.7972 0.1766 2.3159 100 150 255
16.7809 0.1780 2.3159 100 150 255
16.7647 0.1795 2.3159 100 150 255
16.7484 0.1809 2.3159 100 150 255
16.7322 0.1823 2.3159 100 150 255
16.7159 0.1838 2.3159 100 150 255
16.6997 0.1852 2.3159 100 150 255
16.6834 0.1866 2.3159 100 150 255
16.6672 0.1881 2.3159 100 150 255
16.6509 0.1895 2.3159 100 150 255
16.6347 0.1909 2.3159 100 150 255
16.6184 0.1924 2.3159 100 150 255
16.6022 0.1938 2.3159 100 150 255
16.5859 0.1952 2.3159 100 150 255
16.5696 0.1967 2.3159 100 150 255
16.5534 0.1981 2.3159 100 150 255
16.5371 0.1995 2.3159 100 150 255
16.5209 0.2010 2.3159 100 150 255
16.5046 0.2024 2.3159 100 150 255
16.4884 0.2038 2.3159 100 150 255
16.4721 0.2053 2.3159 100 150 255
16.4559 0.2067 2.3159 100 150 255
16.4396 0.2081 2.3159 100 150 255
16.4234 0.2096 2.3159 100 150 255
16.4071 0.2110 2.3159 100 150 255
16.3909 0.2124 2.3159 100 150 255
16.3746 0.2139 2.3159 100 150 255
16.3584 0.2153 2.3159 100 150 255
16.3421 0.2167 2.3159 100 150 255
16.3259 0.2182 2.3159 100 150 255
16.3096 0.2196 2.3159 100 150 255
16.2934 0.2210 2.3159 100 150 255
16.2771 0.2225 2.3159 100 150 255
16.2609 0.2239 2.3159 100 150 255
16.2446 0.2253 2.3159 100 150 255
16.2284 0.2268 2.3159 100 150 255
16.2121 0.2282 2.3159 100 150 255
16.1959 0.2296 2.3159 100 150 255
16.1796 0.2311 2.3159 100 150 255
16.1634 0.2325 2.3159 100 150 255
16.1471 0.2339 2.3159 100 150 255
16.1309 0.2354 2.3159 100 150 255
16.1146 0.2368 2.3159 100 150 255
16.0984 0.2382 2.3159 100 150 255
16.0821 0.2397 2.3159 100 150 255
16.0659 0.2411 2.3159 100 150 255
16.0496 0.2425 2.3159 100 150 255
16.0333 0.2440 2.3159 100 150 255
16.0171 0.2454 2.3159 100 150 255
16.0008 0.2468 2.3159 100 150 255
15.9846 0.2483 2.3159 100 150 255
15.9683 0.2497 2.3159 100 150 255
15.9521 0.2511 2.3159 100 150 255
15.9358 0.2526 2.3159 100 150 255
15.9196 0.2540 2.3159 100 150 255
15.9033 0.2554 2.3159 100 150 255
15.8871 0.2569 2.3159 100 150 255
15.8708 0.2583 2.3159 100 150 255
15.8546 0.2597 2.3159 100 150 255
15.8383 0.2612 2.3159 100 150 255
15.8221 0.2626 2.3159 100 150 255
15.8058 0.2640 2.3159 100 150 255
15.7896 0.2655 2.3159 100 150 255
15.7733 0.2669 2.3159 100 150 255
15.7571 0.2683 2.3159 100 150 255
15.7408 0.2698 2.3159 100 150 255
15.7246 0.2712 2.3159 100 150 255
15.7246 0.2712 0.0770 100 150 255
15.7246 0.2712 0.0905 100 150 255
15.7246 0.2712 0.1041 100 150 255
15.7246 0.2712 0.1177 100 150 255
15.7246 0.2712 0.1312 100 150 255
15.7246 0.2712 0.1448 100 150 255
15.7246 0.2712 0.1584 100 150 255
15.7246 0.2712 0.1719 100 150 255
15.7246 0.2712 0.1855 100 150 255
15.7246 0.2712 0.1991 100 150 255
15.7246 0.2712 0.2127 100 150 255
15.7246 0.2712 0.2262 100 150 255
15.7246 0.2712 0.2398 100 150 255
15.7246 0.2712 0.2534 100 150 255
15.7246 0.2712 0.2669 100 150 255
15.7246 0.2712 0.2805 100 150 255
15.7246 0.2712 0.2941 100 150 255
15.7246 0.2712 0.3076 100 150 255
15.7246 0.2712 0.3212 100 150 255
15.7246 0.2712 0.3348 100 150 255
15.7246 0.2712 0.3483 100 150 255
15.7246 0.2712 0.3619 100 150 255
15.7246 0.2712 0.3755 100 150 255
15.7246 0.2712 0.3891 100 150 255
15.7246 0.2712 0.4026 100 150 255
15.7246 0.2712 0.4162 100 150 255
15.7246 0.2712 0.4298 100 150 255
15.7246 0.2712 0.4433 100 150 255
15.7246 0.2712 0.4569 100 150 255
15.7246 0.2712 0.4705 100 150 255
15.7246 0.2712 0.4840 100 150 255
15.7246 0.2712 0.4976 100 150 255
15.7246 0.2712 0.5112 100 150 255
15.7246 0.2712 0.5247 100 150 255
15.7246 0.2712 0.5383 100 150 255
15.7246 0.2712 0.5519 100 150 255
15.7246 0.2712 0.5655 100 150 255
15.7246 0.2712 0.5790 100 150 255
15.7246 0.2712 0.5926 100 150 255
15.7246 0.2712 0.6062 100 150 255
15.7246 0.2712 0.6197 100 150 255
15.7246 0.2712 0.6333 100 150 255
15.7246 0.2712 0.6469 100 150 255
15.7246 0.2712 0.6604 100 150 255
15.7246 0.2712 0.6740 100 150 255
15.7246 0.2712 0.6876 100 150 255
15.7246 0.2712 0.7011 100 150 255
15.7246 0.2712 0.7147 100 150 255
15.7246 0.2712 0.7283 100 150 255
15.7246 0.2712 0.7419 100 150 255
15.7246 0.2712 0.7554 100 150 255
15.7246 0.2712 0.7690 100 150 255
15.7246 0.2712 0.7826 100 150 255
15.7246 0.2712 0.7961 100 150 255
15.7246 0.2712 0.8097 100 150 255
15.7246 0.2712 0.8233 100 150 255
15.7246 0.2712 0.8368 100 150 255
15.7246 0.2712 0.8504 100 150 255
15.7246 0.2712 0.8640 100 150 255
15.7246 0.2712 0.8775 100 150 255
15.7246 0.2712 0.8911 100 150 255
15.7246 0.2712 0.9047 100 150 255
15.7246 0.2712 0.9182 100 150 255
15.7246 0.2712 0.9318 100 150 255
15.7246 0.2712 0.9454 100 150 255
15.7246 0.2712 0.9590 100 150 255
15.7246 0.2712 0.9725 100 150 255
15.7246 0.2712 0.9861 100 150 255
15.7246 0.2712 0.9997 100 150 255
15.7246 0.2712 1.0132 100 150 255
15.7246 0.2712 1.0268 100 150 255
15.7246 0.2712 1.0404 100 150 255
15.7246 0.2712 1.0539 100 150 255
15.7246 0.2712 1.0675 100 150 255
15.7246 0.2712 1.0811 100 150 255
15.7246 0.2712 1.0946 100 150 255
15.7246 0.2712 1.1082 100 150 255
15.7246 0.2712 1.1218 100 150 255
15.7246 0.2712 1.1354 100 150 255
15.7246 0.2712 1.1489 100 150 255
15.7246 0.2712 1.1625 100 150 255
15.7246 0.2712 1.1761 100 150 255
15.7246 0.2712 1.1896 100 150 255
15.7246 0.2712 1.2032 100 150 255
15.7246 0.2712 1.2168 100 150 255
15.7246 0.2712 1.2303 100 150 255
15.7246 0.2712 1.2439 100 150 255
15.7246 0.2712 1.2575 100 150 255
15.7246 0.2712 1.2710 100 150 255
15.7246 0.2712 1.2846 100 150 255
15.7246 0.2712 1.2982 100 150 255
15.7246 0.2712 1.3118 100 150 255
15.7246 0.2712 1.3253 100 150 255
15.7246 0.2712 1.3389 100 150 255
15.7246 0.2712 1.3525 100 150 255
15.7246 0.2712 1.3660 100 150 255
15.7246 0.2712 1.3796 100 150 255
15.7246 0.2712 1.3932 100 150 255
15.7246 0.2712 1.4067 100 150 255
15.7246 0.2712 1.4203 100 150 255
15.7246 0.2712 1.4339 100 150 255
15.7246 0.2712 1.4474 100 150 255
15.7246 0.2712 1.4610 100 150 255
15.7246 0.2712 1.4746 100 150 255
15.7246 0.2712 1.4882 100 150 255
15.7246 0.2712 1.5017 100 150 255
15.7246 0.2712 1.5153 100 150 255
15.7246 0.2712 1.5289 100 150 255
15.7246 0.2712 1.5424 100 150 255
15.7246 0.2712 1.5560 100 150 255
15.7246 0.2712 1.5696 100 150 255
15.7246 0.2712 1.5831 100 150 255
15.7246 0.2712 1.5967 100 150 255
15.7246 0.2712 1.6103 100 150 255
15.7246 0.2712 1.6238 100 150 255
15.7246 0.2712 1.6374 100 150 255
15.7246 0.2712 1.6510 100 150 255
15.7246 0.2712 1.6646 100 150 255
15.7246 0.2712 1.6781 100 150 255
15.7246 0.2712 1.6917 100 150 255
15.7246 0.2712 1.7053 100 150 255
15.7246 0.2712 1.7188 100 150 255
15.7246 0.2712 1.7324 100 150 255
15.7246 0.2712 1.7460 100 150 255
15.7246 0.2712 1.7595 100 150 255
15.7246 0.2712 1.7731 100 150 255
15.7246 0.2712 1.7867 100 150 255
15.7246 0.2712 1.8002 100 150 255
15.7246 0.2712 1.8138 100 150 255
15.7246 0.2712 1.8274 100 150 255
15.7246 0.2712 1.8409 100 150 255
15.7246 0.2712 1.8545 100 150 255
15.7246 0.2712 1.8681 100 150 255
15.7246 0.2712 1.8817 100 150 255
15.7246 0.2712 1.8952 100 150 255
15.7246 0.2712 1.9088 100 150 255
15.7246 0.2712 1.9224 100 150 255
15.7246 0.2712 1.9359 100 150 255
15.7246 0.2712 1.9495 100 150 255
15.7246 0.2712 1.9631 100 150 255
15.7246 0.2712 1.9766 100 150 255
15.7246 0.2712 1.9902 100 150 255
15.7246 0.2712 2.0038 100 150 255
15.7246 0.2712 2.0173 100 150 255
15.7246 0.2712 2.0309 100 150 255
15.7246 0.2712 2.0445 100 150 255
15.7246 0.2712 2.0581 100 150 255
15.7246 0.2712 2.0716 100 150 255
15.7246 0.2712 2.0852 100 150 255
15.7246 0.2712 2.0988 100 150 255
15.7246 0.2712 2.1123 100 150 255
15.7246 0.2712 2.1259 100 150 255
15.7246 0.2712 2.1395 100 150 255
15.7246 0.2712 2.1530 100 150 255
15.7246 0.2712 2.1666 100 150 255
15.7246 0.2712 2.1802 100 150 255
15.7246 0.2712 2.1937 100 150 255
15.7246 0.2712 2.2073 100 150 255
15.7246 0.2712 2.2209 100 150 255
15.7246 0.2712 2.2345 100 150 255
15.7246 0.2712 2.2480 100 150 255
15.7246 0.2712 2.2616 100 150 255
15.7246 0.2712 2.2752 100 150 255
15.7246 0.2712 2.2887 100 150 255
15.7246 0.2712 2.3023 100 150 255
15.7246 0.2712 2.3159 100 150 255
15.2190 -5.4602 0.0770 100 150 255
15.2190 -5.4602 0.0905 100 150 255
15.2190 -5.4602 0.1041 100 150 255
15.2190 -5.4602 0.1177 100 150 255
15.2190 -5.4602 0.1312 100 150 255
15.2190 -5.4602 0.1448 100 150 255
15.2190 -5.4602 0.1584 100 150 255
15.2190 -5.4602 0.1719 100 150 255
15.2190 -5.4602 0.1855 100 150 255
15.2190 -5.4602 0.1991 100 150 255
15.2190 -5.4602 0.2127 100 150 255
15.2190 -5.4602 0.2262 100 150 255
15.2190 -5.4602 0.2398 100 150 255
15.2190 -5.4602 0.2534 100 150 255
15.2190 -5.4602 0.2669 100 150 255
15.2190 -5.4602 0.2805 100 150 255
15.2190 -5.4602 0.2941 100 150 255
15.2190 -5.4602 0.3076 100 150 255
15.2190 -5.4602 0.3212 100 150 255
15.2190 -5.4602 0.3348 100 150 255
15.2190 -5.4602 0.3483 100 150 255
15.2190 -5.4602 0.3619 100 150 255
15.2190 -5.4602 0.3755 100 150 255
15.2190 -5.4602 0.3891 100 150 255
15.2190 -5.4602 0.4026 100 150 255
15.2190 -5.4602 0.4162 100 150 255
15.2190 -5.4602 0.4298 100 150 255
15.2190 -5.4602 0.4433 100 150 255
15.2190 -5.4602 0.4569 100 150 255
15.2190 -5.4602 0.4705 100 150 255
15.2190 -5.4602 0.4840 100 150 255
15.2190 -5.4602 0.4976 100 150 255
15.2190 -5.4602 0.5112 100 150 255
15.2190 -5.4602 0.5247 100 150 255
15.2190 -5.4602 0.5383 100 150 255
