ply
format ascii 1.0
element vertex 1524
property float x
property float y
property float z
property uchar red
property uchar green
property uchar blue
end_header
21.8161 8.4630 2.9580 0 255 0
21.8004 8.4662 2.9580 0 255 0
21.7847 8.4694 2.9580 0 255 0
21.7690 8.4726 2.9580 0 255 0
21.7533 8.4758 2.9580 0 255 0
21.7375 8.4790 2.9580 0 255 0
21.7218 8.4821 2.9580 0 255 0
21.7218 8.4821 2.9580 0 255 0
21.7133 8.4398 2.9580 0 255 0
21.7047 8.3975 2.9580 0 255 0
21.6961 8.3551 2.9580 0 255 0
21.6875 8.3128 2.9580 0 255 0
21.6789 8.2705 2.9580 0 255 0
21.6703 8.2281 2.9580 0 255 0
21.6618 8.1858 2.9580 0 255 0
21.6532 8.1435 2.9580 0 255 0
21.6446 8.1011 2.9580 0 255 0
21.6360 8.0588 2.9580 0 255 0
21.6274 8.0165 2.9580 0 255 0
21.6188 7.9741 2.9580 0 255 0
21.6103 7.9318 2.9580 0 255 0
21.6017 7.8895 2.9580 0 255 0
21.5931 7.8471 2.9580 0 255 0
21.5845 7.8048 2.9580 0 255 0
21.5759 7.7625 2.9580 0 255 0
21.5673 7.7201 2.9580 0 255 0
21.5588 7.6778 2.9580 0 255 0
21.5502 7.6355 2.9580 0 255 0
21.5416 7.5932 2.9580 0 255 0
21.5330 7.5508 2.9580 0 255 0
21.5244 7.5085 2.9580 0 255 0
21.5159 7.4662 2.9580 0 255 0
21.5073 7.4238 2.9580 0 255 0
21.4987 7.3815 2.9580 0 255 0
21.4901 7.3392 2.9580 0 255 0
21.4815 7.2968 2.9580 0 255 0
21.4729 7.2545 2.9580 0 255 0
21.4644 7.2122 2.9580 0 255 0
21.4558 7.1698 2.9580 0 255 0
21.4472 7.1275 2.9580 0 255 0
21.4386 7.0852 2.9580 0 255 0
21.4300 7.0428 2.9580 0 255 0
21.4214 7.0005 2.9580 0 255 0
21.4129 6.9582 2.9580 0 255 0
21.4043 6.9158 2.9580 0 255 0
21.3957 6.8735 2.9580 0 255 0
21.3871 6.8312 2.9580 0 255 0
21.3785 6.7888 2.9580 0 255 0
21.3699 6.7465 2.9580 0 255 0
21.3614 6.7042 2.9580 0 255 0
21.3528 6.6618 2.9580 0 255 0
21.3442 6.6195 2.9580 0 255 0
21.3356 6.5772 2.9580 0 255 0
21.3270 6.5348 2.9580 0 255 0
21.3184 6.4925 2.9580 0 255 0
21.3099 6.4502 2.9580 0 255 0
21.3013 6.4078 2.9580 0 255 0
21.2927 6.3655 2.9580 0 255 0
21.2841 6.3232 2.9580 0 255 0
21.2755 6.2808 2.9580 0 255 0
21.2670 6.2385 2.9580 0 255 0
21.2584 6.1962 2.9580 0 255 0
21.2498 6.1538 2.9580 0 255 0
21.2412 6.1115 2.9580 0 255 0
21.2326 6.0692 2.9580 0 255 0
21.2240 6.0268 2.9580 0 255 0
21.2155 5.9845 2.9580 0 255 0
21.2069 5.9422 2.9580 0 255 0
21.1983 5.8998 2.9580 0 255 0
21.1897 5.8575 2.9580 0 255 0
21.1811 5.8152 2.9580 0 255 0
21.1725 5.7728 2.9580 0 255 0
21.1640 5.7305 2.9580 0 255 0
21.1554 5.6882 2.9580 0 255 0
21.1468 5.6458 2.9580 0 255 0
21.1382 5.6035 2.9580 0 255 0
21.1296 5.5612 2.9580 0 255 0
21.1210 5.5189 2.9580 0 255 0
21.1125 5.4765 2.9580 0 255 0
21.1039 5.4342 2.9580 0 255 0
21.0953 5.3919 2.9580 0 255 0
21.0867 5.3495 2.9580 0 255 0
21.0781 5.3072 2.9580 0 255 0
21.0695 5.2649 2.9580 0 255 0
21.0610 5.2225 2.9580 0 255 0
21.0524 5.1802 2.9580 0 255 0
21.0438 5.1379 2.9580 0 255 0
21.0352 5.0955 2.9580 0 255 0
21.0266 5.0532 2.9580 0 255 0
21.0181 5.0109 2.9580 0 255 0
21.0095 4.9685 2.9580 0 255 0
21.0009 4.9262 2.9580 0 255 0
20.9923 4.8839 2.9580 0 255 0
20.9837 4.8415 2.9580 0 255 0
20.9751 4.7992 2.9580 0 255 0
20.9666 4.7569 2.9580 0 255 0
20.9580 4.7145 2.9580 0 255 0
20.9494 4.6722 2.9580 0 255 0
20.9408 4.6299 2.9580 0 255 0
20.9322 4.5875 2.9580 0 255 0
20.9236 4.5452 2.9580 0 255 0
20.9151 4.5029 2.9580 0 255 0
20.9065 4.4605 2.9580 0 255 0
20.8979 4.4182 2.9580 0 255 0
20.8893 4.3759 2.9580 0 255 0
20.8807 4.3335 2.9580 0 255 0
20.8721 4.2912 2.9580 0 255 0
20.8636 4.2489 2.9580 0 255 0
20.8550 4.2065 2.9580 0 255 0
20.8464 4.1642 2.9580 0 255 0
20.8378 4.1219 2.9580 0 255 0
20.8292 4.0795 2.9580 0 255 0
20.8207 4.0372 2.9580 0 255 0
20.8121 3.9949 2.9580 0 255 0
20.8035 3.9525 2.9580 0 255 0
20.7949 3.9102 2.9580 0 255 0
20.7863 3.8679 2.9580 0 255 0
20.7777 3.8255 2.9580 0 255 0
20.7692 3.7832 2.9580 0 255 0
20.7606 3.7409 2.9580 0 255 0
20.7520 3.6985 2.9580 0 255 0
20.7434 3.6562 2.9580 0 255 0
20.7348 3.6139 2.9580 0 255 0
20.7262 3.5715 2.9580 0 255 0
20.7177 3.5292 2.9580 0 255 0
20.7091 3.4869 2.9580 0 255 0
20.7005 3.4446 2.9580 0 255 0
20.6919 3.4022 2.9580 0 255 0
20.6833 3.3599 2.9580 0 255 0
20.6747 3.3176 2.9580 0 255 0
20.6662 3.2752 2.9580 0 255 0
20.6576 3.2329 2.9580 0 255 0
20.6490 3.1906 2.9580 0 255 0
20.6404 3.1482 2.9580 0 255 0
20.6318 3.1059 2.9580 0 255 0
20.6232 3.0636 2.9580 0 255 0
20.6147 3.0212 2.9580 0 255 0
20.6061 2.9789 2.9580 0 255 0
20.5975 2.9366 2.9580 0 255 0
20.5889 2.8942 2.9580 0 255 0
20.5803 2.8519 2.9580 0 255 0
20.5718 2.8096 2.9580 0 255 0
20.5632 2.7672 2.9580 0 255 0
20.5546 2.7249 2.9580 0 255 0
20.5460 2.6826 2.9580 0 255 0
20.5374 2.6402 2.9580 0 255 0
20.5288 2.5979 2.9580 0 255 0
20.5203 2.5556 2.9580 0 255 0
20.5117 2.5132 2.9580 0 255 0
20.5031 2.4709 2.9580 0 255 0
20.4945 2.4286 2.9580 0 255 0
20.4859 2.3862 2.9580 0 255 0
20.4773 2.3439 2.9580 0 255 0
20.4688 2.3016 2.9580 0 255 0
20.4602 2.2592 2.9580 0 255 0
20.4516 2.2169 2.9580 0 255 0
20.4430 2.1746 2.9580 0 255 0
20.4344 2.1322 2.9580 0 255 0
20.4258 2.0899 2.9580 0 255 0
20.4173 2.0476 2.9580 0 255 0
20.4087 2.0052 2.9580 0 255 0
20.4001 1.9629 2.9580 0 255 0
20.3915 1.9206 2.9580 0 255 0
20.3829 1.8782 2.9580 0 255 0
20.3743 1.8359 2.9580 0 255 0
20.3658 1.7936 2.9580 0 255 0
20.3572 1.7512 2.9580 0 255 0
20.3486 1.7089 2.9580 0 255 0
20.3400 1.6666 2.9580 0 255 0
20.3314 1.6242 2.9580 0 255 0
20.3229 1.5819 2.9580 0 255 0
20.3143 1.5396 2.9580 0 255 0
20.3057 1.4972 2.9580 0 255 0
20.3057 1.4972 2.9580 0 255 0
20.3214 1.4941 2.9580 0 255 0
20.3371 1.4909 2.9580 0 255 0
20.3528 1.4877 2.9580 0 255 0
20.3685 1.4845 2.9580 0 255 0
20.3842 1.4813 2.9580 0 255 0
20.4000 1.4781 2.9580 0 255 0
20.4157 1.4750 2.9580 0 255 0
20.4314 1.4718 2.9580 0 255 0
20.4471 1.4686 2.9580 0 255 0
20.4628 1.4654 2.9580 0 255 0
20.4785 1.4622 2.9580 0 255 0
20.4942 1.4590 2.9580 0 255 0
20.5099 1.4558 2.9580 0 255 0
20.5256 1.4527 2.9580 0 255 0
20.5413 1.4495 2.9580 0 255 0
20.5571 1.4463 2.9580 0 255 0
20.5728 1.4431 2.9580 0 255 0
20.5885 1.4399 2.9580 0 255 0
20.6042 1.4367 2.9580 0 255 0
20.6199 1.4335 2.9580 0 255 0
20.6356 1.4304 2.9580 0 255 0
20.6513 1.4272 2.9580 0 255 0
20.6670 1.4240 2.9580 0 255 0
20.6827 1.4208 2.9580 0 255 0
20.6985 1.4176 2.9580 0 255 0
20.7142 1.4144 2.9580 0 255 0
20.7299 1.4112 2.9580 0 255 0
20.7456 1.4081 2.9580 0 255 0
20.7613 1.4049 2.9580 0 255 0
20.7770 1.4017 2.9580 0 255 0
20.7927 1.3985 2.9580 0 255 0
20.8084 1.3953 2.9580 0 255 0
20.8241 1.3921 2.9580 0 255 0
20.8399 1.3890 2.9580 0 255 0
20.8556 1.3858 2.9580 0 255 0
20.8713 1.3826 2.9580 0 255 0
20.8870 1.3794 2.9580 0 255 0
20.9027 1.3762 2.9580 0 255 0
20.9184 1.3730 2.9580 0 255 0
20.9341 1.3698 2.9580 0 255 0
20.9498 1.3667 2.9580 0 255 0
20.9655 1.3635 2.9580 0 255 0
20.9812 1.3603 2.9580 0 255 0
20.9970 1.3571 2.9580 0 255 0
21.0127 1.3539 2.9580 0 255 0
21.0284 1.3507 2.9580 0 255 0
21.0441 1.3475 2.9580 0 255 0
21.0598 1.3444 2.9580 0 255 0
21.0755 1.3412 2.9580 0 255 0
21.0912 1.3380 2.9580 0 255 0
21.1069 1.3348 2.9580 0 255 0
21.1226 1.3316 2.9580 0 255 0
21.1384 1.3284 2.9580 0 255 0
21.1541 1.3252 2.9580 0 255 0
21.1698 1.3221 2.9580 0 255 0
21.1855 1.3189 2.9580 0 255 0
21.2012 1.3157 2.9580 0 255 0
21.2169 1.3125 2.9580 0 255 0
21.2326 1.3093 2.9580 0 255 0
21.2483 1.3061 2.9580 0 255 0
21.2640 1.3029 2.9580 0 255 0
21.2797 1.2998 2.9580 0 255 0
21.2955 1.2966 2.9580 0 255 0
21.3112 1.2934 2.9580 0 255 0
21.3269 1.2902 2.9580 0 255 0
21.3426 1.2870 2.9580 0 255 0
21.3583 1.2838 2.9580 0 255 0
21.3740 1.2807 2.9580 0 255 0
21.3897 1.2775 2.9580 0 255 0
21.4054 1.2743 2.9580 0 255 0
21.4211 1.2711 2.9580 0 255 0
21.4369 1.2679 2.9580 0 255 0
21.4526 1.2647 2.9580 0 255 0
21.4683 1.2615 2.9580 0 255 0
21.4840 1.2584 2.9580 0 255 0
21.4997 1.2552 2.9580 0 255 0
21.5154 1.2520 2.9580 0 255 0
21.5311 1.2488 2.9580 0 255 0
21.5468 1.2456 2.9580 0 255 0
21.5625 1.2424 2.9580 0 255 0
21.5783 1.2392 2.9580 0 255 0
21.5940 1.2361 2.9580 0 255 0
21.6097 1.2329 2.9580 0 255 0
21.6254 1.2297 2.9580 0 255 0
21.6411 1.2265 2.9580 0 255 0
21.6568 1.2233 2.9580 0 255 0
21.6725 1.2201 2.9580 0 255 0
21.6882 1.2169 2.9580 0 255 0
21.7039 1.2138 2.9580 0 255 0
21.7196 1.2106 2.9580 0 255 0
21.7354 1.2074 2.9580 0 255 0
21.7511 1.2042 2.9580 0 255 0
21.7668 1.2010 2.9580 0 255 0
21.7825 1.1978 2.9580 0 255 0
21.7982 1.1947 2.9580 0 255 0
21.8139 1.1915 2.9580 0 255 0
21.8296 1.1883 2.9580 0 255 0
21.8453 1.1851 2.9580 0 255 0
21.8610 1.1819 2.9580 0 255 0
21.8768 1.1787 2.9580 0 255 0
21.8925 1.1755 2.9580 0 255 0
21.9082 1.1724 2.9580 0 255 0
21.9239 1.1692 2.9580 0 255 0
21.9396 1.1660 2.9580 0 255 0
21.9553 1.1628 2.9580 0 255 0
21.9710 1.1596 2.9580 0 255 0
21.9867 1.1564 2.9580 0 255 0
22.0024 1.1532 2.9580 0 255 0
22.0182 1.1501 2.9580 0 255 0
22.0339 1.1469 2.9580 0 255 0
22.0496 1.1437 2.9580 0 255 0
22.0653 1.1405 2.9580 0 255 0
22.0810 1.1373 2.9580 0 255 0
22.0967 1.1341 2.9580 0 255 0
22.1124 1.1309 2.9580 0 255 0
22.1281 1.1278 2.9580 0 255 0
22.1438 1.1246 2.9580 0 255 0
22.1595 1.1214 2.9580 0 255 0
22.1753 1.1182 2.9580 0 255 0
22.1910 1.1150 2.9580 0 255 0
22.2067 1.1118 2.9580 0 255 0
22.2224 1.1086 2.9580 0 255 0
22.2381 1.1055 2.9580 0 255 0
22.2538 1.1023 2.9580 0 255 0
22.2695 1.0991 2.9580 0 255 0
22.2852 1.0959 2.9580 0 255 0
22.3009 1.0927 2.9580 0 255 0
22.3167 1.0895 2.9580 0 255 0
22.3324 1.0864 2.9580 0 255 0
22.3481 1.0832 2.9580 0 255 0
22.3638 1.0800 2.9580 0 255 0
22.3795 1.0768 2.9580 0 255 0
22.3952 1.0736 2.9580 0 255 0
22.4109 1.0704 2.9580 0 255 0
22.4266 1.0672 2.9580 0 255 0
22.4423 1.0641 2.9580 0 255 0
22.4580 1.0609 2.9580 0 255 0
22.4738 1.0577 2.9580 0 255 0
22.4895 1.0545 2.9580 0 255 0
22.5052 1.0513 2.9580 0 255 0
22.5209 1.0481 2.9580 0 255 0
22.5366 1.0449 2.9580 0 255 0
22.5523 1.0418 2.9580 0 255 0
22.5680 1.0386 2.9580 0 255 0
22.5837 1.0354 2.9580 0 255 0
22.5994 1.0322 2.9580 0 255 0
22.6152 1.0290 2.9580 0 255 0
22.6309 1.0258 2.9580 0 255 0
22.6466 1.0226 2.9580 0 255 0
22.6623 1.0195 2.9580 0 255 0
22.6780 1.0163 2.9580 0 255 0
22.6937 1.0131 2.9580 0 255 0
22.7094 1.0099 2.9580 0 255 0
22.7251 1.0067 2.9580 0 255 0
22.7408 1.0035 2.9580 0 255 0
22.7566 1.0004 2.9580 0 255 0
22.7723 0.9972 2.9580 0 255 0
22.7880 0.9940 2.9580 0 255 0
22.8037 0.9908 2.9580 0 255 0
22.8194 0.9876 2.9580 0 255 0
22.8351 0.9844 2.9580 0 255 0
22.8508 0.9812 2.9580 0 255 0
22.8665 0.9781 2.9580 0 255 0
22.8822 0.9749 2.9580 0 255 0
22.8979 0.9717 2.9580 0 255 0
22.8979 0.9717 0.5030 0 255 0
22.8979 0.9717 0.5179 0 255 0
22.8979 0.9717 0.5328 0 255 0
22.8979 0.9717 0.5477 0 255 0
22.8979 0.9717 0.5625 0 255 0
22.8979 0.9717 0.5774 0 255 0
22.8979 0.9717 0.5923 0 255 0
22.8979 0.9717 0.6072 0 255 0
22.8979 0.9717 0.6220 0 255 0
22.8979 0.9717 0.6369 0 255 0
22.8979 0.9717 0.6518 0 255 0
22.8979 0.9717 0.6667 0 255 0
22.8979 0.9717 0.6816 0 255 0
22.8979 0.9717 0.6964 0 255 0
22.8979 0.9717 0.7113 0 255 0
22.8979 0.9717 0.7262 0 255 0
22.8979 0.9717 0.7411 0 255 0
22.8979 0.9717 0.7560 0 255 0
22.8979 0.9717 0.7708 0 255 0
22.8979 0.9717 0.7857 0 255 0
22.8979 0.9717 0.8006 0 255 0
22.8979 0.9717 0.8155 0 255 0
22.8979 0.9717 0.8304 0 255 0
22.8979 0.9717 0.8452 0 255 0
22.8979 0.9717 0.8601 0 255 0
22.8979 0.9717 0.8750 0 255 0
22.8979 0.9717 0.8899 0 255 0
22.8979 0.9717 0.9047 0 255 0
22.8979 0.9717 0.9196 0 255 0
22.8979 0.9717 0.9345 0 255 0
22.8979 0.9717 0.9494 0 255 0
22.8979 0.9717 0.9643 0 255 0
22.8979 0.9717 0.9791 0 255 0
22.8979 0.9717 0.9940 0 255 0
22.8979 0.9717 1.0089 0 255 0
22.8979 0.9717 1.0238 0 255 0
22.8979 0.9717 1.0387 0 255 0
22.8979 0.9717 1.0535 0 255 0
22.8979 0.9717 1.0684 0 255 0
22.8979 0.9717 1.0833 0 255 0
22.8979 0.9717 1.0982 0 255 0
22.8979 0.9717 1.1130 0 255 0
22.8979 0.9717 1.1279 0 255 0
22.8979 0.9717 1.1428 0 255 0
22.8979 0.9717 1.1577 0 255 0
22.8979 0.9717 1.1726 0 255 0
22.8979 0.9717 1.1874 0 255 0
22.8979 0.9717 1.2023 0 255 0
22.8979 0.9717 1.2172 0 255 0
22.8979 0.9717 1.2321 0 255 0
22.8979 0.9717 1.2470 0 255 0
22.8979 0.9717 1.2618 0 255 0
22.8979 0.9717 1.2767 0 255 0
22.8979 0.9717 1.2916 0 255 0
22.8979 0.9717 1.3065 0 255 0
22.8979 0.9717 1.3214 0 255 0
22.8979 0.9717 1.3362 0 255 0
22.8979 0.9717 1.3511 0 255 0
22.8979 0.9717 1.3660 0 255 0
22.8979 0.9717 1.3809 0 255 0
22.8979 0.9717 1.3957 0 255 0
22.8979 0.9717 1.4106 0 255 0
22.8979 0.9717 1.4255 0 255 0
22.8979 0.9717 1.4404 0 255 0
22.8979 0.9717 1.4553 0 255 0
22.8979 0.9717 1.4701 0 255 0
22.8979 0.9717 1.4850 0 255 0
22.8979 0.9717 1.4999 0 255 0
22.8979 0.9717 1.5148 0 255 0
22.8979 0.9717 1.5297 0 255 0
22.8979 0.9717 1.5445 0 255 0
22.8979 0.9717 1.5594 0 255 0
22.8979 0.9717 1.5743 0 255 0
22.8979 0.9717 1.5892 0 255 0
22.8979 0.9717 1.6040 0 255 0
22.8979 0.9717 1.6189 0 255 0
22.8979 0.9717 1.6338 0 255 0
22.8979 0.9717 1.6487 0 255 0
22.8979 0.9717 1.6636 0 255 0
22.8979 0.9717 1.6784 0 255 0
22.8979 0.9717 1.6933 0 255 0
22.8979 0.9717 1.7082 0 255 0
22.8979 0.9717 1.7231 0 255 0
22.8979 0.9717 1.7380 0 255 0
22.8979 0.9717 1.7528 0 255 0
22.8979 0.9717 1.7677 0 255 0
22.8979 0.9717 1.7826 0 255 0
22.8979 0.9717 1.7975 0 255 0
22.8979 0.9717 1.8124 0 255 0
22.8979 0.9717 1.8272 0 255 0
22.8979 0.9717 1.8421 0 255 0
22.8979 0.9717 1.8570 0 255 0
22.8979 0.9717 1.8719 0 255 0
22.8979 0.9717 1.8867 0 255 0
22.8979 0.9717 1.9016 0 255 0
22.8979 0.9717 1.9165 0 255 0
22.8979 0.9717 1.9314 0 255 0
22.8979 0.9717 1.9463 0 255 0
22.8979 0.9717 1.9611 0 255 0
22.8979 0.9717 1.9760 0 255 0
22.8979 0.9717 1.9909 0 255 0
22.8979 0.9717 2.0058 0 255 0
22.8979 0.9717 2.0207 0 255 0
22.8979 0.9717 2.0355 0 255 0
22.8979 0.9717 2.0504 0 255 0
22.8979 0.9717 2.0653 0 255 0
22.8979 0.9717 2.0802 0 255 0
22.8979 0.9717 2.0950 0 255 0
22.8979 0.9717 2.1099 0 255 0
22.8979 0.9717 2.1248 0 255 0
22.8979 0.9717 2.1397 0 255 0
22.8979 0.9717 2.1546 0 255 0
22.8979 0.9717 2.1694 0 255 0
22.8979 0.9717 2.1843 0 255 0
22.8979 0.9717 2.1992 0 255 0
22.8979 0.9717 2.2141 0 255 0
22.8979 0.9717 2.2290 0 255 0
22.8979 0.9717 2.2438 0 255 0
22.8979 0.9717 2.2587 0 255 0
22.8979 0.9717 2.2736 0 255 0
22.8979 0.9717 2.2885 0 255 0
22.8979 0.9717 2.3034 0 255 0
22.8979 0.9717 2.3182 0 255 0
22.8979 0.9717 2.3331 0 255 0
22.8979 0.9717 2.3480 0 255 0
22.8979 0.9717 2.3629 0 255 0
22.8979 0.9717 2.3777 0 255 0
22.8979 0.9717 2.3926 0 255 0
22.8979 0.9717 2.4075 0 255 0
22.8979 0.9717 2.4224 0 255 0
22.8979 0.9717 2.4373 0 255 0
22.8979 0.9717 2.4521 0 255 0
22.8979 0.9717 2.4670 0 255 0
22.8979 0.9717 2.4819 0 255 0
22.8979 0.9717 2.4968 0 255 0
22.8979 0.9717 2.5117 0 255 0
22.8979 0.9717 2.5265 0 255 0
22.8979 0.9717 2.5414 0 255 0
22.8979 0.9717 2.5563 0 255 0
22.8979 0.9717 2.5712 0 255 0
22.8979 0.9717 2.5860 0 255 0
22.8979 0.9717 2.6009 0 255 0
22.8979 0.9717 2.6158 0 255 0
22.8979 0.9717 2.6307 0 255 0
22.8979 0.9717 2.6456 0 255 0
22.8979 0.9717 2.6604 0 255 0
22.8979 0.9717 2.6753 0 255 0
22.8979 0.9717 2.6902 0 255 0
22.8979 0.9717 2.7051 0 255 0
22.8979 0.9717 2.7200 0 255 0
22.8979 0.9717 2.7348 0 255 0
22.8979 0.9717 2.7497 0 255 0
22.8979 0.9717 2.7646 0 255 0
22.8979 0.9717 2.7795 0 255 0
22.8979 0.9717 2.7944 0 255 0
22.8979 0.9717 2.8092 0 255 0
22.8979 0.9717 2.8241 0 255 0
22.8979 0.9717 2.8390 0 255 0
22.8979 0.9717 2.8539 0 255 0
22.8979 0.9717 2.8687 0 255 0
22.8979 0.9717 2.8836 0 255 0
22.8979 0.9717 2.8985 0 255 0
22.8979 0.9717 2.9134 0 255 0
22.8979 0.9717 2.9283 0 255 0
22.8979 0.9717 2.9431 0 255 0
22.8979 0.9717 2.9580 0 255 0
24.3141 7.9566 0.5030 0 255 0
24.3141 7.9566 0.5179 0 255 0
24.3141 7.9566 0.5328 0 255 0
24.3141 7.9566 0.5477 0 255 0
24.3141 7.9566 0.5625 0 255 0
24.3141 7.9566 0.5774 0 255 0
24.3141 7.9566 0.5923 0 255 0
24.3141 7.9566 0.6072 0 255 0
24.3141 7.9566 0.6220 0 255 0
24.3141 7.9566 0.6369 0 255 0
24.3141 7.9566 0.6518 0 255 0
24.3141 7.9566 0.6667 0 255 0
24.3141 7.9566 0.6816 0 255 0
24.3141 7.9566 0.6964 0 255 0
24.3141 7.9566 0.7113 0 255 0
24.3141 7.9566 0.7262 0 255 0
24.3141 7.9566 0.7411 0 255 0
24.3141 7.9566 0.7560 0 255 0
24.3141 7.9566 0.7708 0 255 0
24.3141 7.9566 0.7857 0 255 0
24.3141 7.9566 0.8006 0 255 0
24.3141 7.9566 0.8155 0 255 0
24.3141 7.9566 0.8304 0 255 0
24.3141 7.9566 0.8452 0 255 0
24.3141 7.9566 0.8601 0 255 0
24.3141 7.9566 0.8750 0 255 0
24.3141 7.9566 0.8899 0 255 0
24.3141 7.9566 0.9047 0 255 0
24.3141 7.9566 0.9196 0 255 0
24.3141 7.9566 0.9345 0 255 0
24.3141 7.9566 0.9494 0 255 0
24.3141 7.9566 0.9643 0 255 0
24.3141 7.9566 0.9791 0 255 0
24.3141 7.9566 0.9940 0 255 0
24.3141 7.9566 1.0089 0 255 0
24.3141 7.9566 1.0238 0 255 0
24.3141 7.9566 1.0387 0 255 0
24.3141 7.9566 1.0535 0 255 0
24.3141 7.9566 1.0684 0 255 0
24.3141 7.9566 1.0833 0 255 0
24.3141 7.9566 1.0982 0 255 0
24.3141 7.9566 1.1130 0 255 0
24.3141 7.9566 1.1279 0 255 0
24.3141 7.9566 1.1428 0 255 0
24.3141 7.9566 1.1577 0 255 0
24.3141 7.9566 1.1726 0 255 0
24.3141 7.9566 1.1874 0 255 0
24.3141 7.9566 1.2023 0 255 0
24.3141 7.9566 1.2172 0 255 0
24.3141 7.9566 1.2321 0 255 0
24.3141 7.9566 1.2470 0 255 0
24.3141 7.9566 1.2618 0 255 0
24.3141 7.9566 1.2767 0 255 0
24.3141 7.9566 1.2916 0 255 0
24.3141 7.9566 1.3065 0 255 0
24.3141 7.9566 1.3214 0 255 0
24.3141 7.9566 1.3362 0 255 0
24.3141 7.9566 1.3511 0 255 0
24.3141 7.9566 1.3660 0 255 0
24.3141 7.9566 1.3809 0 255 0
24.3141 7.9566 1.3957 0 255 0
24.3141 7.9566 1.4106 0 255 0
24.3141 7.9566 1.4255 0 255 0
24.3141 7.9566 1.4404 0 255 0
24.3141 7.9566 1.4553 0 255 0
24.3141 7.9566 1.4701 0 255 0
24.3141 7.9566 1.4850 0 255 0
24.3141 7.9566 1.4999 0 255 0
24.3141 7.9566 1.5148 0 255 0
24.3141 7.9566 1.5297 0 255 0
24.3141 7.9566 1.5445 0 255 0
24.3141 7.9566 1.5594 0 255 0
24.3141 7.9566 1.5743 0 255 0
24.3141 7.9566 1.5892 0 255 0
24.3141 7.9566 1.6040 0 255 0
24.3141 7.9566 1.6189 0 255 0
24.3141 7.9566 1.6338 0 255 0
24.3141 7.9566 1.6487 0 255 0
24.3141 7.9566 1.6636 0 255 0
24.3141 7.9566 1.6784 0 255 0
24.3141 7.9566 1.6933 0 255 0
24.3141 7.9566 1.7082 0 255 0
24.3141 7.9566 1.7231 0 255 0
24.3141 7.9566 1.7380 0 255 0
24.3141 7.9566 1.7528 0 255 0
24.3141 7.9566 1.7677 0 255 0
24.3141 7.9566 1.7826 0 255 0
24.3141 7.9566 1.7975 0 255 0
24.3141 7.9566 1.8124 0 255 0
24.3141 7.9566 1.8272 0 255 0
24.3141 7.9566 1.8421 0 255 0
24.3141 7.9566 1.8570 0 255 0
24.3141 7.9566 1.8719 0 255 0
24.3141 7.9566 1.8867 0 255 0
24.3141 7.9566 1.9016 0 255 0
24.3141 7.9566 1.9165 0 255 0
24.3141 7.9566 1.9314 0 255 0
24.3141 7.9566 1.9463 0 255 0
24.3141 7.9566 1.9611 0 255 0
24.3141 7.9566 1.9760 0 255 0
24.3141 7.9566 1.9909 0 255 0
24.3141 7.9566 2.0058 0 255 0
24.3141 7.9566 2.0207 0 255 0
24.3141 7.9566 2.0355 0 255 0
24.3141 7.9566 2.0504 0 255 0
24.3141 7.9566 2.0653 0 255 0
24.3141 7.9566 2.0802 0 255 0
24.3141 7.9566 2.0950 0 255 0
24.3141 7.9566 2.1099 0 255 0
24.3141 7.9566 2.1248 0 255 0
24.3141 7.9566 2.1397 0 255 0
24.3141 7.9566 2.1546 0 255 0
24.3141 7.9566 2.1694 0 255 0
24.3141 7.9566 2.1843 0 255 0
24.3141 7.9566 2.1992 0 255 0
24.3141 7.9566 2.2141 0 255 0
24.3141 7.9566 2.2290 0 255 0
24.3141 7.9566 2.2438 0 255 0
24.3141 7.9566 2.2587 0 255 0
24.3141 7.9566 2.2736 0 255 0
24.3141 7.9566 2.2885 0 255 0
24.3141 7.9566 2.3034 0 255 0
24.3141 7.9566 2.3182 0 255 0
24.3141 7.9566 2.3331 0 255 0
24.3141 7.9566 2.3480 0 255 0
24.3141 7.9566 2.3629 0 255 0
24.3141 7.9566 2.3777 0 255 0
24.3141 7.9566 2.3926 0 255 0
24.3141 7.9566 2.4075 0 255 0
24.3141 7.9566 2.4224 0 255 0
24.3141 7.9566 2.4373 0 255 0
24.3141 7.9566 2.4521 0 255 0
24.3141 7.9566 2.4670 0 255 0
24.3141 7.9566 2.4819 0 255 0
24.3141 7.9566 2.4968 0 255 0
24.3141 7.9566 2.5117 0 255 0
24.3141 7.9566 2.5265 0 255 0
24.3141 7.9566 2.5414 0 255 0
24.3141 7.9566 2.5563 0 255 0
24.3141 7.9566 2.5712 0 255 0
24.3141 7.9566 2.5860 0 255 0
24.3141 7.9566 2.6009 0 255 0
24.3141 7.9566 2.6158 0 255 0
24.3141 7.9566 2.6307 0 255 0
24.3141 7.9566 2.6456 0 255 0
24.3141 7.9566 2.6604 0 255 0
24.3141 7.9566 2.6753 0 255 0
24.3141 7.9566 2.6902 0 255 0
24.3141 7.9566 2.7051 0 255 0
24.3141 7.9566 2.7200 0 255 0
24.3141 7.9566 2.7348 0 255 0
24.3141 7.9566 2.7497 0 255 0
24.3141 7.9566 2.7646 0 255 0
24.3141 7.9566 2.7795 0 255 0
24.3141 7.9566 2.7944 0 255 0
24.3141 7.9566 2.8092 0 255 0
24.3141 7.9566 2.8241 0 255 0
24.3141 7.9566 2.8390 0 255 0
24.3141 7.9566 2.8539 0 255 0
24.3141 7.9566 2.8687 0 255 0
24.3141 7.9566 2.8836 0 255 0
24.3141 7.9566 2.8985 0 255 0
24.3141 7.9566 2.9134 0 255 0
24.3141 7.9566 2.9283 0 255 0
24.3141 7.9566 2.9431 0 255 0
24.3141 7.9566 2.9580 0 255 0
21.7218 8.4821 0.5030 0 255 0
21.7218 8.4821 0.5179 0 255 0
21.7218 8.4821 0.5328 0 255 0
21.7218 8.4821 0.5477 0 255 0
21.7218 8.4821 0.5625 0 255 0
21.7218 8.4821 0.5774 0 255 0
21.7218 8.4821 0.5923 0 255 0
21.7218 8.4821 0.6072 0 255 0
21.7218 8.4821 0.6220 0 255 0
21.7218 8.4821 0.6369 0 255 0
21.7218 8.4821 0.6518 0 255 0
21.7218 8.4821 0.6667 0 255 0
21.7218 8.4821 0.6816 0 255 0
21.7218 8.4821 0.6964 0 255 0
21.7218 8.4821 0.7113 0 255 0
21.7218 8.4821 0.7262 0 255 0
21.7218 8.4821 0.7411 0 255 0
21.7218 8.4821 0.7560 0 255 0
21.7218 8.4821 0.7708 0 255 0
21.7218 8.4821 0.7857 0 255 0
21.7218 8.4821 0.8006 0 255 0
21.7218 8.4821 0.8155 0 255 0
21.7218 8.4821 0.8304 0 255 0
21.7218 8.4821 0.8452 0 255 0
21.7218 8.4821 0.8601 0 255 0
21.7218 8.4821 0.8750 0 255 0
21.7218 8.4821 0.8899 0 255 0
21.7218 8.4821 0.9047 0 255 0
21.7218 8.4821 0.9196 0 255 0
21.7218 8.4821 0.9345 0 255 0
21.7218 8.4821 0.9494 0 255 0
21.7218 8.4821 0.9643 0 255 0
21.7218 8.4821 0.9791 0 255 0
21.7218 8.4821 0.9940 0 255 0
21.7218 8.4821 1.0089 0 255 0
21.7218 8.4821 1.0238 0 255 0
21.7218 8.4821 1.0387 0 255 0
21.7218 8.4821 1.0535 0 255 0
21.7218 8.4821 1.0684 0 255 0
21.7218 8.4821 1.0833 0 255 0
21.7218 8.4821 1.0982 0 255 0
21.7218 8.4821 1.1130 0 255 0
21.7218 8.4821 1.1279 0 255 0
21.7218 8.4821 1.1428 0 255 0
21.7218 8.4821 1.1577 0 255 0
21.7218 8.4821 1.1726 0 255 0
21.7218 8.4821 1.1874 0 255 0
21.7218 8.4821 1.2023 0 255 0
21.7218 8.4821 1.2172 0 255 0
21.7218 8.4821 1.2321 0 255 0
21.7218 8.4821 1.2470 0 255 0
21.7218 8.4821 1.2618 0 255 0
21.7218 8.4821 1.2767 0 255 0
21.7218 8.4821 1.2916 0 255 0
21.7218 8.4821 1.3065 0 255 0
21.7218 8.4821 1.3214 0 255 0
21.7218 8.4821 1.3362 0 255 0
21.7218 8.4821 1.3511 0 255 0
21.7218 8.4821 1.3660 0 255 0
21.7218 8.4821 1.3809 0 255 0
21.7218 8.4821 1.3957 0 255 0
21.7218 8.4821 1.4106 0 255 0
21.7218 8.4821 1.4255 0 255 0
21.7218 8.4821 1.4404 0 255 0
21.7218 8.4821 1.4553 0 255 0
21.7218 8.4821 1.4701 0 255 0
21.7218 8.4821 1.4850 0 255 0
21.7218 8.4821 1.4999 0 255 0
21.7218 8.4821 1.5148 0 255 0
21.7218 8.4821 1.5297 0 255 0
21.7218 8.4821 1.5445 0 255 0
21.7218 8.4821 1.5594 0 255 0
21.7218 8.4821 1.5743 0 255 0
21.7218 8.4821 1.5892 0 255 0
21.7218 8.4821 1.6040 0 255 0
21.7218 8.4821 1.6189 0 255 0
21.7218 8.4821 1.6338 0 255 0
21.7218 8.4821 1.6487 0 255 0
21.7218 8.4821 1.6636 0 255 0
21.7218 8.4821 1.6784 0 255 0
21.7218 8.4821 1.6933 0 255 0
21.7218 8.4821 1.7082 0 255 0
21.7218 8.4821 1.7231 0 255 0
21.7218 8.4821 1.7380 0 255 0
21.7218 8.4821 1.7528 0 255 0
21.7218 8.4821 1.7677 0 255 0
21.7218 8.4821 1.7826 0 255 0
21.7218 8.4821 1.7975 0 255 0
21.7218 8.4821 1.8124 0 255 0
21.7218 8.4821 1.8272 0 255 0
21.7218 8.4821 1.8421 0 255 0
21.7218 8.4821 1.8570 0 255 0
21.7218 8.4821 1.8719 0 255 0
21.7218 8.4821 1.8867 0 255 0
21.7218 8.4821 1.9016 0 255 0
21.7218 8.4821 1.9165 0 255 0
21.7218 8.4821 1.9314 0 255 0
21.7218 8.4821 1.9463 0 255 0
21.7218 8.4821 1.9611 0 255 0
21.7218 8.4821 1.9760 0 255 0
21.7218 8.4821 1.9909 0 255 0
21.7218 8.4821 2.0058 0 255 0
21.7218 8.4821 2.0207 0 255 0
21.7218 8.4821 2.0355 0 255 0
21.7218 8.4821 2.0504 0 255 0
21.7218 8.4821 2.0653 0 255 0
21.7218 8.4821 2.0802 0 255 0
21.7218 8.4821 2.0950 0 255 0
21.7218 8.4821 2.1099 0 255 0
21.7218 8.4821 2.1248 0 255 0
21.7218 8.4821 2.1397 0 255 0
21.7218 8.4821 2.1546 0 255 0
21.7218 8.4821 2.1694 0 255 0
21.7218 8.4821 2.1843 0 255 0
21.7218 8.4821 2.1992 0 255 0
21.7218 8.4821 2.2141 0 255 0
21.7218 8.4821 2.2290 0 255 0
21.7218 8.4821 2.2438 0 255 0
21.7218 8.4821 2.2587 0 255 0
21.7218 8.4821 2.2736 0 255 0
21.7218 8.4821 2.2885 0 255 0
21.7218 8.4821 2.3034 0 255 0
21.7218 8.4821 2.3182 0 255 0
21.7218 8.4821 2.3331 0 255 0
21.7218 8.4821 2.3480 0 255 0
21.7218 8.4821 2.3629 0 255 0
21.7218 8.4821 2.3777 0 255 0
21.7218 8.4821 2.3926 0 255 0
21.7218 8.4821 2.4075 0 255 0
21.7218 8.4821 2.4224 0 255 0
21.7218 8.4821 2.4373 0 255 0
21.7218 8.4821 2.4521 0 255 0
21.7218 8.4821 2.4670 0 255 0
21.7218 8.4821 2.4819 0 255 0
21.7218 8.4821 2.4968 0 255 0
21.7218 8.4821 2.5117 0 255 0
21.7218 8.4821 2.5265 0 255 0
21.7218 8.4821 2.5414 0 255 0
21.7218 8.4821 2.5563 0 255 0
21.7218 8.4821 2.5712 0 255 0
21.7218 8.4821 2.5860 0 255 0
21.7218 8.4821 2.6009 0 255 0
21.7218 8.4821 2.6158 0 255 0
21.7218 8.4821 2.6307 0 255 0
21.7218 8.4821 2.6456 0 255 0
21.7218 8.4821 2.6604 0 255 0
21.7218 8.4821 2.6753 0 255 0
21.7218 8.4821 2.6902 0 255 0
21.7218 8.4821 2.7051 0 255 0
21.7218 8.4821 2.7200 0 255 0
21.7218 8.4821 2.7348 0 255 0
21.7218 8.4821 2.7497 0 255 0
21.7218 8.4821 2.7646 0 255 0
21.7218 8.4821 2.7795 0 255 0
21.7218 8.4821 2.7944 0 255 0
21.7218 8.4821 2.8092 0 255 0
21.7218 8.4821 2.8241 0 255 0
21.7218 8.4821 2.8390 0 255 0
21.7218 8.4821 2.8539 0 255 0
21.7218 8.4821 2.8687 0 255 0
21.7218 8.4821 2.8836 0 255 0
21.7218 8.4821 2.8985 0 255 0
21.7218 8.4821 2.9134 0 255 0
21.7218 8.4821 2.9283 0 255 0
21.7218 8.4821 2.9431 0 255 0
21.7218 8.4821 2.9580 0 255 0
20.3057 1.4972 0.5030 0 255 0
20.3057 1.4972 0.5179 0 255 0
20.3057 1.4972 0.5328 0 255 0
20.3057 1.4972 0.5477 0 255 0
20.3057 1.4972 0.5625 0 255 0
20.3057 1.4972 0.5774 0 255 0
20.3057 1.4972 0.5923 0 255 0
20.3057 1.4972 0.6072 0 255 0
20.3057 1.4972 0.6220 0 255 0
20.3057 1.4972 0.6369 0 255 0
20.3057 1.4972 0.6518 0 255 0
20.3057 1.4972 0.6667 0 255 0
20.3057 1.4972 0.6816 0 255 0
20.3057 1.4972 0.6964 0 255 0
20.3057 1.4972 0.7113 0 255 0
20.3057 1.4972 0.7262 0 255 0
20.3057 1.4972 0.7411 0 255 0
20.3057 1.4972 0.7560 0 255 0
20.3057 1.4972 0.7708 0 255 0
20.3057 1.4972 0.7857 0 255 0
20.3057 1.4972 0.8006 0 255 0
20.3057 1.4972 0.8155 0 255 0
20.3057 1.4972 0.8304 0 255 0
20.3057 1.4972 0.8452 0 255 0
20.3057 1.4972 0.8601 0 255 0
20.3057 1.4972 0.8750 0 255 0
20.3057 1.4972 0.8899 0 255 0
20.3057 1.4972 0.9047 0 255 0
20.3057 1.4972 0.9196 0 255 0
20.3057 1.4972 0.9345 0 255 0
20.3057 1.4972 0.9494 0 255 0
20.3057 1.4972 0.9643 0 255 0
20.3057 1.4972 0.9791 0 255 0
20.3057 1.4972 0.9940 0 255 0
20.3057 1.4972 1.0089 0 255 0
20.3057 1.4972 1.0238 0 255 0
20.3057 1.4972 1.0387 0 255 0
20.3057 1.4972 1.0535 0 255 0
20.3057 1.4972 1.0684 0 255 0
20.3057 1.4972 1.0833 0 255 0
20.3057 1.4972 1.0982 0 255 0
20.3057 1.4972 1.1130 0 255 0
20.3057 1.4972 1.1279 0 255 0
20.3057 1.4972 1.1428 0 255 0
20.3057 1.4972 1.1577 0 255 0
20.3057 1.4972 1.1726 0 255 0
20.3057 1.4972 1.1874 0 255 0
20.3057 1.4972 1.2023 0 255 0
20.3057 1.4972 1.2172 0 255 0
20.3057 1.4972 1.2321 0 255 0
20.3057 1.4972 1.2470 0 255 0
20.3057 1.4972 1.2618 0 255 0
20.3057 1.4972 1.2767 0 255 0
20.3057 1.4972 1.2916 0 255 0
20.3057 1.4972 1.3065 0 255 0
20.3057 1.4972 1.3214 0 255 0
20.3057 1.4972 1.3362 0 255 0
20.3057 1.4972 1.3511 0 255 0
20.3057 1.4972 1.3660 0 255 0
20.3057 1.4972 1.3809 0 255 0
20.3057 1.4972 1.3957 0 255 0
20.3057 1.4972 1.4106 0 255 0
20.3057 1.4972 1.4255 0 255 0
20.3057 1.4972 1.4404 0 255 0
20.3057 1.4972 1.4553 0 255 0
20.3057 1.4972 1.4701 0 255 0
20.3057 1.4972 1.4850 0 255 0
20.3057 1.4972 1.4999 0 255 0
20.3057 1.4972 1.5148 0 255 0
20.3057 1.4972 1.5297 0 255 0
20.3057 1.4972 1.5445 0 255 0
20.3057 1.4972 1.5594 0 255 0
20.3057 1.4972 1.5743 0 255 0
20.3057 1.4972 1.5892 0 255 0
20.3057 1.4972 1.6040 0 255 0
20.3057 1.4972 1.6189 0 255 0
20.3057 1.4972 1.6338 0 255 0
20.3057 1.4972 1.6487 0 255 0
20.3057 1.4972 1.6636 0 255 0
20.3057 1.4972 1.6784 0 255 0
20.3057 1.4972 1.6933 0 255 0
20.3057 1.4972 1.7082 0 255 0
20.3057 1.4972 1.7231 0 255 0
20.3057 1.4972 1.7380 0 255 0
20.3057 1.4972 1.7528 0 255 0
20.3057 1.4972 1.7677 0 255 0
20.3057 1.4972 1.7826 0 255 0
20.3057 1.4972 1.7975 0 255 0
20.3057 1.4972 1.8124 0 255 0
20.3057 1.4972 1.8272 0 255 0
20.3057 1.4972 1.8421 0 255 0
20.3057 1.4972 1.8570 0 255 0
20.3057 1.4972 1.8719 0 255 0
20.3057 1.4972 1.8867 0 255 0
20.3057 1.4972 1.9016 0 255 0
20.3057 1.4972 1.9165 0 255 0
20.3057 1.4972 1.9314 0 255 0
20.3057 1.4972 1.9463 0 255 0
20.3057 1.4972 1.9611 0 255 0
20.3057 1.4972 1.9760 0 255 0
20.3057 1.4972 1.9909 0 255 0
20.3057 1.4972 2.0058 0 255 0
20.3057 1.4972 2.0207 0 255 0
20.3057 1.4972 2.0355 0 255 0
20.3057 1.4972 2.0504 0 255 0
20.3057 1.4972 2.0653 0 255 0
20.3057 1.4972 2.0802 0 255 0
20.3057 1.4972 2.0950 0 255 0
20.3057 1.4972 2.1099 0 255 0
20.3057 1.4972 2.1248 0 255 0
20.3057 1.4972 2.1397 0 255 0
20.3057 1.4972 2.1546 0 255 0
20.3057 1.4972 2.1694 0 255 0
20.3057 1.4972 2.1843 0 255 0
20.3057 1.4972 2.1992 0 255 0
20.3057 1.4972 2.2141 0 255 0
20.3057 1.4972 2.2290 0 255 0
20.3057 1.4972 2.2438 0 255 0
20.3057 1.4972 2.2587 0 255 0
20.3057 1.4972 2.2736 0 255 0
20.3057 1.4972 2.2885 0 255 0
20.3057 1.4972 2.3034 0 255 0
20.3057 1.4972 2.3182 0 255 0
20.3057 1.4972 2.3331 0 255 0
20.3057 1.4972 2.3480 0 255 0
20.3057 1.4972 2.3629 0 255 0
20.3057 1.4972 2.3777 0 255 0
20.3057 1.4972 2.3926 0 255 0
20.3057 1.4972 2.4075 0 255 0
20.3057 1.4972 2.4224 0 255 0
20.3057 1.4972 2.4373 0 255 0
20.3057 1.4972 2.4521 0 255 0
20.3057 1.4972 2.4670 0 255 0
20.3057 1.4972 2.4819 0 255 0
20.3057 1.4972 2.4968 0 255 0
20.3057 1.4972 2.5117 0 255 0
20.3057 1.4972 2.5265 0 255 0
20.3057 1.4972 2.5414 0 255 0
20.3057 1.4972 2.5563 0 255 0
20.3057 1.4972 2.5712 0 255 0
20.3057 1.4972 2.5860 0 255 0
20.3057 1.4972 2.6009 0 255 0
20.3057 1.4972 2.6158 0 255 0
20.3057 1.4972 2.6307 0 255 0
20.3057 1.4972 2.6456 0 255 0
20.3057 1.4972 2.6604 0 255 0
20.3057 1.4972 2.6753 0 255 0
20.3057 1.4972 2.6902 0 255 0
20.3057 1.4972 2.7051 0 255 0
20.3057 1.4972 2.7200 0 255 0
20.3057 1.4972 2.7348 0 255 0
20.3057 1.4972 2.7497 0 255 0
20.3057 1.4972 2.7646 0 255 0
20.3057 1.4972 2.7795 0 255 0
20.3057 1.4972 2.7944 0 255 0
20.3057 1.4972 2.8092 0 255 0
20.3057 1.4972 2.8241 0 255 0
20.3057 1.4972 2.8390 0 255 0
20.3057 1.4972 2.8539 0 255 0
20.3057 1.4972 2.8687 0 255 0
20.3057 1.4972 2.8836 0 255 0
20.3057 1.4972 2.8985 0 255 0
20.3057 1.4972 2.9134 0 255 0
20.3057 1.4972 2.9283 0 255 0
20.3057 1.4972 2.9431 0 255 0
20.3057 1.4972 2.9580 0 255 0
23.1280 0.7970 0.8258 100 150 255
23.1358 0.8376 0.8258 100 150 255
23.1435 0.8783 0.8258 100 150 255
23.1513 0.9190 0.8258 100 150 255
23.1591 0.9597 0.8258 100 150 255
23.1669 1.0004 0.8258 100 150 255
23.1746 1.0411 0.8258 100 150 255
23.1824 1.0817 0.8258 100 150 255
23.1902 1.1224 0.8258 100 150 255
23.1980 1.1631 0.8258 100 150 255
23.2057 1.2038 0.8258 100 150 255
23.2135 1.2445 0.8258 100 150 255
23.2213 1.2852 0.8258 100 150 255
23.2291 1.3259 0.8258 100 150 255
23.2369 1.3665 0.8258 100 150 255
23.2446 1.4072 0.8258 100 150 255
23.2524 1.4479 0.8258 100 150 255
23.2602 1.4886 0.8258 100 150 255
23.2680 1.5293 0.8258 100 150 255
23.2757 1.5700 0.8258 100 150 255
23.2835 1.6106 0.8258 100 150 255
23.2913 1.6513 0.8258 100 150 255
23.2991 1.6920 0.8258 100 150 255
23.3069 1.7327 0.8258 100 150 255
23.3146 1.7734 0.8258 100 150 255
23.3224 1.8141 0.8258 100 150 255
23.3302 1.8547 0.8258 100 150 255
23.3380 1.8954 0.8258 100 150 255
23.3457 1.9361 0.8258 100 150 255
23.3535 1.9768 0.8258 100 150 255
23.3613 2.0175 0.8258 100 150 255
23.3691 2.0582 0.8258 100 150 255
23.3768 2.0988 0.8258 100 150 255
23.3846 2.1395 0.8258 100 150 255
23.3924 2.1802 0.8258 100 150 255
23.4002 2.2209 0.8258 100 150 255
23.4079 2.2616 0.8258 100 150 255
23.4157 2.3023 0.8258 100 150 255
23.4235 2.3429 0.8258 100 150 255
23.4313 2.3836 0.8258 100 150 255
23.4391 2.4243 0.8258 100 150 255
23.4468 2.4650 0.8258 100 150 255
23.4546 2.5057 0.8258 100 150 255
23.4624 2.5464 0.8258 100 150 255
23.4702 2.5870 0.8258 100 150 255
23.4779 2.6277 0.8258 100 150 255
23.4857 2.6684 0.8258 100 150 255
23.4935 2.7091 0.8258 100 150 255
23.5013 2.7498 0.8258 100 150 255
23.5090 2.7905 0.8258 100 150 255
23.5168 2.8311 0.8258 100 150 255
23.5246 2.8718 0.8258 100 150 255
23.5324 2.9125 0.8258 100 150 255
23.5402 2.9532 0.8258 100 150 255
23.5479 2.9939 0.8258 100 150 255
23.5557 3.0346 0.8258 100 150 255
23.5635 3.0752 0.8258 100 150 255
23.5713 3.1159 0.8258 100 150 255
23.5790 3.1566 0.8258 100 150 255
23.5868 3.1973 0.8258 100 150 255
23.5946 3.2380 0.8258 100 150 255
23.6024 3.2787 0.8258 100 150 255
23.6101 3.3193 0.8258 100 150 255
23.6179 3.3600 0.8258 100 150 255
23.6257 3.4007 0.8258 100 150 255
23.6335 3.4414 0.8258 100 150 255
23.6413 3.4821 0.8258 100 150 255
23.6490 3.5228 0.8258 100 150 255
23.6568 3.5635 0.8258 100 150 255
23.6646 3.6041 0.8258 100 150 255
23.6724 3.6448 0.8258 100 150 255
23.6801 3.6855 0.8258 100 150 255
23.6879 3.7262 0.8258 100 150 255
23.6957 3.7669 0.8258 100 150 255
23.7035 3.8076 0.8258 100 150 255
23.7112 3.8482 0.8258 100 150 255
23.7190 3.8889 0.8258 100 150 255
23.7268 3.9296 0.8258 100 150 255
23.7346 3.9703 0.8258 100 150 255
23.7424 4.0110 0.8258 100 150 255
23.7501 4.0517 0.8258 100 150 255
23.7579 4.0923 0.8258 100 150 255
23.7657 4.1330 0.8258 100 150 255
23.7735 4.1737 0.8258 100 150 255
23.7812 4.2144 0.8258 100 150 255
23.7890 4.2551 0.8258 100 150 255
23.7968 4.2958 0.8258 100 150 255
23.8046 4.3364 0.8258 100 150 255
23.8123 4.3771 0.8258 100 150 255
23.8201 4.4178 0.8258 100 150 255
23.8279 4.4585 0.8258 100 150 255
23.8357 4.4992 0.8258 100 150 255
23.8435 4.5399 0.8258 100 150 255
23.8512 4.5805 0.8258 100 150 255
23.8590 4.6212 0.8258 100 150 255
23.8668 4.6619 0.8258 100 150 255
23.8746 4.7026 0.8258 100 150 255
23.8823 4.7433 0.8258 100 150 255
23.8901 4.7840 0.8258 100 150 255
23.8979 4.8246 0.8258 100 150 255
23.9057 4.8653 0.8258 100 150 255
23.9134 4.9060 0.8258 100 150 255
23.9212 4.9467 0.8258 100 150 255
23.9290 4.9874 0.8258 100 150 255
23.9368 5.0281 0.8258 100 150 255
23.9446 5.0687 0.8258 100 150 255
23.9523 5.1094 0.8258 100 150 255
23.9601 5.1501 0.8258 100 150 255
23.9679 5.1908 0.8258 100 150 255
23.9757 5.2315 0.8258 100 150 255
23.9834 5.2722 0.8258 100 150 255
23.9912 5.3128 0.8258 100 150 255
23.9990 5.3535 0.8258 100 150 255
24.0068 5.3942 0.8258 100 150 255
24.0145 5.4349 0.8258 100 150 255
24.0223 5.4756 0.8258 100 150 255
24.0301 5.5163 0.8258 100 150 255
24.0379 5.5569 0.8258 100 150 255
24.0457 5.5976 0.8258 100 150 255
24.0534 5.6383 0.8258 100 150 255
24.0612 5.6790 0.8258 100 150 255
24.0690 5.7197 0.8258 100 150 255
24.0768 5.7604 0.8258 100 150 255
24.0845 5.8011 0.8258 100 150 255
24.0923 5.8417 0.8258 100 150 255
24.1001 5.8824 0.8258 100 150 255
24.1079 5.9231 0.8258 100 150 255
24.1156 5.9638 0.8258 100 150 255
24.1234 6.0045 0.8258 100 150 255
24.1312 6.0452 0.8258 100 150 255
24.1390 6.0858 0.8258 100 150 255
24.1468 6.1265 0.8258 100 150 255
24.1545 6.1672 0.8258 100 150 255
24.1623 6.2079 0.8258 100 150 255
24.1701 6.2486 0.8258 100 150 255
24.1779 6.2893 0.8258 100 150 255
24.1856 6.3299 0.8258 100 150 255
24.1934 6.3706 0.8258 100 150 255
24.2012 6.4113 0.8258 100 150 255
24.2090 6.4520 0.8258 100 150 255
24.2167 6.4927 0.8258 100 150 255
24.2245 6.5334 0.8258 100 150 255
24.2323 6.5740 0.8258 100 150 255
24.2401 6.6147 0.8258 100 150 255
24.2479 6.6554 0.8258 100 150 255
24.2556 6.6961 0.8258 100 150 255
24.2634 6.7368 0.8258 100 150 255
24.2712 6.7775 0.8258 100 150 255
24.2790 6.8181 0.8258 100 150 255
24.2867 6.8588 0.8258 100 150 255
24.2945 6.8995 0.8258 100 150 255
24.3023 6.9402 0.8258 100 150 255
24.3101 6.9809 0.8258 100 150 255
24.3178 7.0216 0.8258 100 150 255
24.3256 7.0622 0.8258 100 150 255
24.3334 7.1029 0.8258 100 150 255
24.3412 7.1436 0.8258 100 150 255
24.3490 7.1843 0.8258 100 150 255
24.3567 7.2250 0.8258 100 150 255
24.3645 7.2657 0.8258 100 150 255
24.3723 7.3063 0.8258 100 150 255
24.3801 7.3470 0.8258 100 150 255
24.3878 7.3877 0.8258 100 150 255
24.3956 7.4284 0.8258 100 150 255
24.4034 7.4691 0.8258 100 150 255
24.4112 7.5098 0.8258 100 150 255
24.4112 7.5098 0.8258 100 150 255
24.3946 7.5129 0.8258 100 150 255
24.3780 7.5161 0.8258 100 150 255
24.3614 7.5193 0.8258 100 150 255
24.3448 7.5224 0.8258 100 150 255
24.3282 7.5256 0.8258 100 150 255
24.3117 7.5288 0.8258 100 150 255
24.2951 7.5320 0.8258 100 150 255
24.2785 7.5351 0.8258 100 150 255
24.2619 7.5383 0.8258 100 150 255
24.2453 7.5415 0.8258 100 150 255
24.2287 7.5446 0.8258 100 150 255
24.2121 7.5478 0.8258 100 150 255
24.1956 7.5510 0.8258 100 150 255
24.1790 7.5541 0.8258 100 150 255
24.1624 7.5573 0.8258 100 150 255
24.1458 7.5605 0.8258 100 150 255
24.1292 7.5637 0.8258 100 150 255
24.1126 7.5668 0.8258 100 150 255
24.0961 7.5700 0.8258 100 150 255
24.0795 7.5732 0.8258 100 150 255
24.0629 7.5763 0.8258 100 150 255
24.0463 7.5795 0.8258 100 150 255
24.0297 7.5827 0.8258 100 150 255
24.0131 7.5859 0.8258 100 150 255
23.9965 7.5890 0.8258 100 150 255
23.9800 7.5922 0.8258 100 150 255
23.9634 7.5954 0.8258 100 150 255
23.9468 7.5985 0.8258 100 150 255
23.9302 7.6017 0.8258 100 150 255
23.9136 7.6049 0.8258 100 150 255
23.8970 7.6080 0.8258 100 150 255
23.8804 7.6112 0.8258 100 150 255
23.8639 7.6144 0.8258 100 150 255
23.8473 7.6176 0.8258 100 150 255
23.8307 7.6207 0.8258 100 150 255
23.8141 7.6239 0.8258 100 150 255
23.7975 7.6271 0.8258 100 150 255
23.7809 7.6302 0.8258 100 150 255
23.7643 7.6334 0.8258 100 150 255
23.7478 7.6366 0.8258 100 150 255
23.7312 7.6397 0.8258 100 150 255
23.7146 7.6429 0.8258 100 150 255
23.6980 7.6461 0.8258 100 150 255
23.6814 7.6493 0.8258 100 150 255
23.6648 7.6524 0.8258 100 150 255
23.6483 7.6556 0.8258 100 150 255
23.6317 7.6588 0.8258 100 150 255
23.6151 7.6619 0.8258 100 150 255
23.5985 7.6651 0.8258 100 150 255
23.5819 7.6683 0.8258 100 150 255
23.5653 7.6715 0.8258 100 150 255
23.5487 7.6746 0.8258 100 150 255
23.5322 7.6778 0.8258 100 150 255
23.5156 7.6810 0.8258 100 150 255
23.4990 7.6841 0.8258 100 150 255
23.4824 7.6873 0.8258 100 150 255
23.4658 7.6905 0.8258 100 150 255
23.4492 7.6936 0.8258 100 150 255
23.4326 7.6968 0.8258 100 150 255
23.4161 7.7000 0.8258 100 150 255
23.3995 7.7032 0.8258 100 150 255
23.3829 7.7063 0.8258 100 150 255
23.3663 7.7095 0.8258 100 150 255
23.3497 7.7127 0.8258 100 150 255
23.3331 7.7158 0.8258 100 150 255
23.3166 7.7190 0.8258 100 150 255
23.3000 7.7222 0.8258 100 150 255
23.2834 7.7253 0.8258 100 150 255
23.2668 7.7285 0.8258 100 150 255
23.2502 7.7317 0.8258 100 150 255
23.2336 7.7349 0.8258 100 150 255
23.2170 7.7380 0.8258 100 150 255
23.2005 7.7412 0.8258 100 150 255
23.1839 7.7444 0.8258 100 150 255
23.1673 7.7475 0.8258 100 150 255
23.1507 7.7507 0.8258 100 150 255
23.1341 7.7539 0.8258 100 150 255
23.1175 7.7570 0.8258 100 150 255
23.1009 7.7602 0.8258 100 150 255
23.0844 7.7634 0.8258 100 150 255
23.0678 7.7666 0.8258 100 150 255
23.0512 7.7697 0.8258 100 150 255
23.0346 7.7729 0.8258 100 150 255
23.0180 7.7761 0.8258 100 150 255
23.0014 7.7792 0.8258 100 150 255
22.9849 7.7824 0.8258 100 150 255
22.9683 7.7856 0.8258 100 150 255
22.9517 7.7888 0.8258 100 150 255
22.9351 7.7919 0.8258 100 150 255
22.9185 7.7951 0.8258 100 150 255
22.9019 7.7983 0.8258 100 150 255
22.8853 7.8014 0.8258 100 150 255
22.8688 7.8046 0.8258 100 150 255
22.8522 7.8078 0.8258 100 150 255
22.8356 7.8109 0.8258 100 150 255
22.8190 7.8141 0.8258 100 150 255
22.8024 7.8173 0.8258 100 150 255
22.7858 7.8205 0.8258 100 150 255
22.7692 7.8236 0.8258 100 150 255
22.7527 7.8268 0.8258 100 150 255
22.7361 7.8300 0.8258 100 150 255
22.7195 7.8331 0.8258 100 150 255
22.7029 7.8363 0.8258 100 150 255
22.6863 7.8395 0.8258 100 150 255
22.6697 7.8426 0.8258 100 150 255
22.6532 7.8458 0.8258 100 150 255
22.6366 7.8490 0.8258 100 150 255
22.6200 7.8522 0.8258 100 150 255
22.6034 7.8553 0.8258 100 150 255
22.5868 7.8585 0.8258 100 150 255
22.5702 7.8617 0.8258 100 150 255
22.5536 7.8648 0.8258 100 150 255
22.5371 7.8680 0.8258 100 150 255
22.5205 7.8712 0.8258 100 150 255
22.5039 7.8744 0.8258 100 150 255
22.4873 7.8775 0.8258 100 150 255
22.4707 7.8807 0.8258 100 150 255
22.4541 7.8839 0.8258 100 150 255
22.4375 7.8870 0.8258 100 150 255
22.4210 7.8902 0.8258 100 150 255
22.4044 7.8934 0.8258 100 150 255
22.3878 7.8965 0.8258 100 150 255
22.3712 7.8997 0.8258 100 150 255
22.3546 7.9029 0.8258 100 150 255
22.3380 7.9061 0.8258 100 150 255
22.3214 7.9092 0.8258 100 150 255
22.3049 7.9124 0.8258 100 150 255
22.2883 7.9156 0.8258 100 150 255
22.2717 7.9187 0.8258 100 150 255
22.2551 7.9219 0.8258 100 150 255
22.2385 7.9251 0.8258 100 150 255
22.2219 7.9282 0.8258 100 150 255
22.2054 7.9314 0.8258 100 150 255
22.1888 7.9346 0.8258 100 150 255
22.1722 7.9378 0.8258 100 150 255
22.1556 7.9409 0.8258 100 150 255
22.1390 7.9441 0.8258 100 150 255
22.1224 7.9473 0.8258 100 150 255
22.1058 7.9504 0.8258 100 150 255
22.0893 7.9536 0.8258 100 150 255
22.0727 7.9568 0.8258 100 150 255
22.0561 7.9599 0.8258 100 150 255
22.0395 7.9631 0.8258 100 150 255
22.0229 7.9663 0.8258 100 150 255
22.0063 7.9695 0.8258 100 150 255
21.9897 7.9726 0.8258 100 150 255
21.9732 7.9758 0.8258 100 150 255
21.9566 7.9790 0.8258 100 150 255
21.9400 7.9821 0.8258 100 150 255
21.9234 7.9853 0.8258 100 150 255
21.9068 7.9885 0.8258 100 150 255
21.8902 7.9917 0.8258 100 150 255
21.8737 7.9948 0.8258 100 150 255
21.8571 7.9980 0.8258 100 150 255
21.8405 8.0012 0.8258 100 150 255
21.8239 8.0043 0.8258 100 150 255
21.8073 8.0075 0.8258 100 150 255
21.7907 8.0107 0.8258 100 150 255
21.7741 8.0138 0.8258 100 150 255
21.7576 8.0170 0.8258 100 150 255
21.7410 8.0202 0.8258 100 150 255
21.7244 8.0234 0.8258 100 150 255
21.7078 8.0265 0.8258 100 150 255
21.6912 8.0297 0.8258 100 150 255
21.6746 8.0329 0.8258 100 150 255
21.6746 8.0329 0.8258 100 150 255
21.6669 7.9922 0.8258 100 150 255
21.6591 7.9515 0.8258 100 150 255
21.6513 7.9108 0.8258 100 150 255
21.6435 7.8701 0.8258 100 150 255
21.6357 7.8294 0.8258 100 150 255
21.6280 7.7888 0.8258 100 150 255
21.6202 7.7481 0.8258 100 150 255
21.6124 7.7074 0.8258 100 150 255
21.6046 7.6667 0.8258 100 150 255
21.5969 7.6260 0.8258 100 150 255
21.5891 7.5853 0.8258 100 150 255
21.5813 7.5447 0.8258 100 150 255
21.5735 7.5040 0.8258 100 150 255
21.5658 7.4633 0.8258 100 150 255
21.5580 7.4226 0.8258 100 150 255
21.5502 7.3819 0.8258 100 150 255
21.5424 7.3412 0.8258 100 150 255
21.5346 7.3006 0.8258 100 150 255
21.5269 7.2599 0.8258 100 150 255
21.5191 7.2192 0.8258 100 150 255
21.5113 7.1785 0.8258 100 150 255
21.5035 7.1378 0.8258 100 150 255
21.4958 7.0971 0.8258 100 150 255
21.4880 7.0565 0.8258 100 150 255
21.4802 7.0158 0.8258 100 150 255
21.4724 6.9751 0.8258 100 150 255
21.4647 6.9344 0.8258 100 150 255
21.4569 6.8937 0.8258 100 150 255
21.4491 6.8530 0.8258 100 150 255
21.4413 6.8124 0.8258 100 150 255
21.4335 6.7717 0.8258 100 150 255
21.4258 6.7310 0.8258 100 150 255
21.4180 6.6903 0.8258 100 150 255
21.4102 6.6496 0.8258 100 150 255
21.4024 6.6089 0.8258 100 150 255
21.3947 6.5683 0.8258 100 150 255
21.3869 6.5276 0.8258 100 150 255
21.3791 6.4869 0.8258 100 150 255
21.3713 6.4462 0.8258 100 150 255
21.3636 6.4055 0.8258 100 150 255
21.3558 6.3648 0.8258 100 150 255
21.3480 6.3242 0.8258 100 150 255
21.3402 6.2835 0.8258 100 150 255
21.3324 6.2428 0.8258 100 150 255
21.3247 6.2021 0.8258 100 150 255
21.3169 6.1614 0.8258 100 150 255
21.3091 6.1207 0.8258 100 150 255
21.3013 6.0801 0.8258 100 150 255
21.2936 6.0394 0.8258 100 150 255
21.2858 5.9987 0.8258 100 150 255
21.2780 5.9580 0.8258 100 150 255
21.2702 5.9173 0.8258 100 150 255
21.2625 5.8766 0.8258 100 150 255
21.2547 5.8360 0.8258 100 150 255
21.2469 5.7953 0.8258 100 150 255
21.2391 5.7546 0.8258 100 150 255
21.2313 5.7139 0.8258 100 150 255
21.2236 5.6732 0.8258 100 150 255
21.2158 5.6325 0.8258 100 150 255
21.2080 5.5918 0.8258 100 150 255
21.2002 5.5512 0.8258 100 150 255
21.1925 5.5105 0.8258 100 150 255
21.1847 5.4698 0.8258 100 150 255
21.1769 5.4291 0.8258 100 150 255
21.1691 5.3884 0.8258 100 150 255
21.1614 5.3477 0.8258 100 150 255
21.1536 5.3071 0.8258 100 150 255
21.1458 5.2664 0.8258 100 150 255
21.1380 5.2257 0.8258 100 150 255
21.1302 5.1850 0.8258 100 150 255
21.1225 5.1443 0.8258 100 150 255
21.1147 5.1036 0.8258 100 150 255
21.1069 5.0630 0.8258 100 150 255
21.0991 5.0223 0.8258 100 150 255
21.0914 4.9816 0.8258 100 150 255
21.0836 4.9409 0.8258 100 150 255
21.0758 4.9002 0.8258 100 150 255
21.0680 4.8595 0.8258 100 150 255
21.0603 4.8189 0.8258 100 150 255
21.0525 4.7782 0.8258 100 150 255
21.0447 4.7375 0.8258 100 150 255
21.0369 4.6968 0.8258 100 150 255
21.0292 4.6561 0.8258 100 150 255
21.0214 4.6154 0.8258 100 150 255
21.0136 4.5748 0.8258 100 150 255
21.0058 4.5341 0.8258 100 150 255
20.9980 4.4934 0.8258 100 150 255
20.9903 4.4527 0.8258 100 150 255
20.9825 4.4120 0.8258 100 150 255
20.9747 4.3713 0.8258 100 150 255
20.9669 4.3307 0.8258 100 150 255
20.9592 4.2900 0.8258 100 150 255
20.9514 4.2493 0.8258 100 150 255
20.9436 4.2086 0.8258 100 150 255
20.9358 4.1679 0.8258 100 150 255
20.9281 4.1272 0.8258 100 150 255
20.9203 4.0866 0.8258 100 150 255
20.9125 4.0459 0.8258 100 150 255
20.9047 4.0052 0.8258 100 150 255
20.8969 3.9645 0.8258 100 150 255
20.8892 3.9238 0.8258 100 150 255
20.8814 3.8831 0.8258 100 150 255
20.8736 3.8425 0.8258 100 150 255
20.8658 3.8018 0.8258 100 150 255
20.8581 3.7611 0.8258 100 150 255
20.8503 3.7204 0.8258 100 150 255
20.8425 3.6797 0.8258 100 150 255
20.8347 3.6390 0.8258 100 150 255
20.8270 3.5984 0.8258 100 150 255
20.8192 3.5577 0.8258 100 150 255
20.8114 3.5170 0.8258 100 150 255
20.8036 3.4763 0.8258 100 150 255
20.7958 3.4356 0.8258 100 150 255
20.7881 3.3949 0.8258 100 150 255
20.7803 3.3542 0.8258 100 150 255
20.7725 3.3136 0.8258 100 150 255
20.7647 3.2729 0.8258 100 150 255
20.7570 3.2322 0.8258 100 150 255
20.7492 3.1915 0.8258 100 150 255
20.7414 3.1508 0.8258 100 150 255
20.7336 3.1101 0.8258 100 150 255
20.7259 3.0695 0.8258 100 150 255
20.7181 3.0288 0.8258 100 150 255
20.7103 2.9881 0.8258 100 150 255
20.7025 2.9474 0.8258 100 150 255
20.6947 2.9067 0.8258 100 150 255
20.6870 2.8660 0.8258 100 150 255
20.6792 2.8254 0.8258 100 150 255
20.6714 2.7847 0.8258 100 150 255
20.6636 2.7440 0.8258 100 150 255
20.6559 2.7033 0.8258 100 150 255
20.6481 2.6626 0.8258 100 150 255
20.6403 2.6219 0.8258 100 150 255
20.6325 2.5813 0.8258 100 150 255
20.6248 2.5406 0.8258 100 150 255
20.6170 2.4999 0.8258 100 150 255
20.6092 2.4592 0.8258 100 150 255
20.6014 2.4185 0.8258 100 150 255
20.5936 2.3778 0.8258 100 150 255
20.5859 2.3372 0.8258 100 150 255
20.5781 2.2965 0.8258 100 150 255
20.5703 2.2558 0.8258 100 150 255
20.5625 2.2151 0.8258 100 150 255
20.5548 2.1744 0.8258 100 150 255
20.5470 2.1337 0.8258 100 150 255
20.5392 2.0931 0.8258 100 150 255
20.5314 2.0524 0.8258 100 150 255
20.5237 2.0117 0.8258 100 150 255
20.5159 1.9710 0.8258 100 150 255
20.5081 1.9303 0.8258 100 150 255
20.5003 1.8896 0.8258 100 150 255
20.4925 1.8490 0.8258 100 150 255
20.4848 1.8083 0.8258 100 150 255
20.4770 1.7676 0.8258 100 150 255
20.4692 1.7269 0.8258 100 150 255
20.4614 1.6862 0.8258 100 150 255
20.4537 1.6455 0.8258 100 150 255
20.4459 1.6049 0.8258 100 150 255
20.4381 1.5642 0.8258 100 150 255
20.4303 1.5235 0.8258 100 150 255
20.4226 1.4828 0.8258 100 150 255
20.4148 1.4421 0.8258 100 150 255
20.4070 1.4014 0.8258 100 150 255
20.3992 1.3608 0.8258 100 150 255
20.3914 1.3201 0.8258 100 150 255
20.3914 1.3201 0.8258 100 150 255
20.4080 1.3169 0.8258 100 150 255
20.4246 1.3137 0.8258 100 150 255
20.4412 1.3106 0.8258 100 150 255
20.4578 1.3074 0.8258 100 150 255
20.4744 1.3042 0.8258 100 150 255
20.4910 1.3010 0.8258 100 150 255
20.5075 1.2979 0.8258 100 150 255
20.5241 1.2947 0.8258 100 150 255
20.5407 1.2915 0.8258 100 150 255
20.5573 1.2884 0.8258 100 150 255
20.5739 1.2852 0.8258 100 150 255
20.5905 1.2820 0.8258 100 150 255
20.6071 1.2789 0.8258 100 150 255
20.6236 1.2757 0.8258 100 150 255
20.6402 1.2725 0.8258 100 150 255
20.6568 1.2693 0.8258 100 150 255
20.6734 1.2662 0.8258 100 150 255
20.6900 1.2630 0.8258 100 150 255
20.7066 1.2598 0.8258 100 150 255
20.7231 1.2567 0.8258 100 150 255
20.7397 1.2535 0.8258 100 150 255
20.7563 1.2503 0.8258 100 150 255
