ply
format ascii 1.0
element vertex 1518
property float x
property float y
property float z
property uchar red
property uchar green
property uchar blue
end_header
10.1770 8.0225 3.4358 60 60 60
11.9525 10.2099 2.7593 60 60 60
4.9171 3.0126 -0.0292 60 60 60
4.9962 2.0509 -0.0060 60 60 60
5.2316 3.2459 -0.0355 60 60 60
14.6830 9.8573 0.0508 60 60 60
3.6414 -6.5071 0.1954 60 60 60
4.3419 -3.7584 -0.0511 60 60 60
3.0816 -4.3191 1.9542 60 60 60
9.2258 -5.2217 0.0617 60 60 60
5.6336 -0.2730 0.0226 60 60 60
2.7636 -4.1326 0.0931 60 60 60
5.6287 0.3305 0.0253 60 60 60
3.7505 -3.8508 -0.0462 60 60 60
11.7973 -15.6045 0.4052 60 60 60
9.8433 7.9991 2.0109 60 60 60
5.9548 5.1897 -0.0914 60 60 60
6.5953 -3.8358 -0.0595 60 60 60
5.9121 -5.7218 1.4193 60 60 60
5.4828 2.6679 -0.0143 60 60 60
5.9581 -0.7082 0.0144 60 60 60
2.4184 -3.9351 1.3702 60 60 60
5.8119 -1.8135 -0.0233 60 60 60
4.5293 -4.7800 2.2163 60 60 60
22.3390 -15.6059 5.1306 60 60 60
6.8662 6.6344 -0.0939 60 60 60
7.7423 6.7496 -0.0317 60 60 60
7.0858 7.3488 0.0014 60 60 60
5.5979 0.7148 0.0240 60 60 60
5.5493 -1.1240 0.0092 60 60 60
8.2391 -7.8897 -0.0350 60 60 60
5.6704 -5.5344 0.0524 60 60 60
4.2244 4.0771 -0.0754 60 60 60
4.9758 -4.1071 -0.0179 60 60 60
3.9375 3.8643 -0.0741 60 60 60
4.3383 -5.0818 1.5281 60 60 60
5.1491 -1.6494 -0.0173 60 60 60
4.4435 -3.0634 -0.0362 60 60 60
4.4481 -4.7793 2.3544 60 60 60
4.0959 -9.6877 3.3362 60 60 60
7.7524 -5.6265 0.0527 60 60 60
5.8698 -2.8220 -0.0345 60 60 60
5.8045 -1.8440 -0.0242 60 60 60
3.4496 -4.5509 0.2158 60 60 60
2.7068 0.3963 1.0086 60 60 60
9.3412 7.3790 0.4308 60 60 60
4.9784 -4.6178 0.0271 60 60 60
5.5807 0.8514 0.0233 60 60 60
4.1074 -4.0347 -0.0610 60 60 60
4.1352 -5.6235 0.7672 60 60 60
5.8524 -1.6354 -0.0181 60 60 60
4.7022 2.7507 -0.0314 60 60 60
7.9175 -6.8698 0.1181 60 60 60
2.8200 -4.5883 0.4394 60 60 60
4.3976 -3.1322 -0.0384 60 60 60
11.5199 -12.1138 0.1894 60 60 60
7.1140 -5.1481 0.0198 60 60 60
4.5028 1.8328 -0.0047 60 60 60
6.0308 6.9730 -0.0038 60 60 60
13.5444 -7.5421 0.2070 60 60 60
15.1926 -9.8147 0.3450 60 60 60
9.0017 6.9449 -0.0099 60 60 60
5.4661 1.5668 0.0070 60 60 60
4.9575 -10.5727 0.0311 60 60 60
4.4974 4.4086 -0.0852 60 60 60
9.6010 9.7132 0.2543 60 60 60
4.5413 3.6621 -0.0586 60 60 60
6.6316 -5.6574 0.0435 60 60 60
6.0855 6.4939 -0.1438 60 60 60
4.9212 -4.6600 0.0312 60 60 60
5.5979 2.3811 -0.0092 60 60 60
18.1058 -10.1305 1.4798 60 60 60
4.1857 -8.5257 -0.0576 60 60 60
9.2973 -5.1327 0.0567 60 60 60
7.1390 -7.1056 -0.0210 60 60 60
9.7074 9.8147 2.0784 60 60 60
2.3275 -2.8873 -0.0449 60 60 60
4.9474 1.2103 0.0117 60 60 60
23.7720 -14.0104 2.6123 60 60 60
4.6322 -4.0320 -0.0577 60 60 60
4.7388 -1.9435 -0.0209 60 60 60
5.6037 0.6872 0.0230 60 60 60
11.4764 10.0321 0.3659 60 60 60
5.9467 -0.7965 0.0141 60 60 60
6.5120 -4.8688 -0.0107 60 60 60
5.3435 -0.1783 0.0199 60 60 60
5.9490 -4.5354 -0.0128 60 60 60
4.0773 4.2376 -0.0803 60 60 60
2.9259 -4.3423 0.3632 60 60 60
3.8930 3.8991 -0.0720 60 60 60
3.9823 -3.6511 -0.0515 60 60 60
6.8270 -3.3711 -0.0573 60 60 60
5.1973 -1.3875 -0.0030 60 60 60
2.5186 -2.9641 -0.0397 60 60 60
7.5491 -5.8592 0.0621 60 60 60
5.3461 -0.2025 0.0183 60 60 60
7.5622 -4.6056 -0.0049 60 60 60
11.9405 -6.6704 0.1097 60 60 60
11.5772 10.4981 3.8231 60 60 60
5.3164 -0.5628 0.0179 60 60 60
3.7352 -4.7207 0.5295 60 60 60
7.2602 -6.1514 0.0769 60 60 60
6.0702 -5.6352 1.4113 60 60 60
2.5105 -3.4108 -0.0300 60 60 60
8.2818 8.4645 -0.0512 60 60 60
7.7287 -4.3769 -0.0141 60 60 60
3.6306 3.2775 -0.0542 60 60 60
14.6711 11.1057 0.0027 60 60 60
6.2804 6.2023 -0.1325 60 60 60
4.6072 1.5217 0.0042 60 60 60
22.6107 -14.4947 5.6732 60 60 60
7.3299 -3.8610 -0.0606 60 60 60
2.3463 -2.8818 -0.0477 60 60 60
8.7917 -5.7501 0.0891 60 60 60
2.8942 -3.4662 -0.0428 60 60 60
8.8343 5.2179 -0.0680 60 60 60
2.7933 -4.3845 0.3736 60 60 60
7.0794 4.5619 -0.0612 60 60 60
8.7057 7.2587 0.0064 60 60 60
5.0474 0.7089 0.0121 60 60 60
2.7109 -0.5912 0.9807 60 60 60
4.5278 -4.8355 2.2203 60 60 60
5.7828 -3.0419 -0.0421 60 60 60
5.2537 -10.4308 0.0208 60 60 60
5.5665 -5.8546 1.2629 60 60 60
5.7405 3.1233 -0.0222 60 60 60
2.4328 -3.9402 0.7611 60 60 60
4.9854 -2.1300 -0.0297 60 60 60
9.2074 -11.8244 1.7588 60 60 60
3.6470 -3.9456 -0.0478 60 60 60
7.8974 -4.2616 -0.0372 60 60 60
8.3990 -4.8230 0.0171 60 60 60
8.5592 -6.0718 0.0975 60 60 60
22.9751 -13.1462 4.9719 60 60 60
7.3826 -4.8222 0.0065 60 60 60
5.5950 6.4668 -0.0530 60 60 60
5.3735 3.8618 -0.0461 60 60 60
17.5142 -12.5738 1.5201 60 60 60
7.6689 -7.1795 0.3576 60 60 60
5.0829 2.6359 -0.0118 60 60 60
5.3808 -2.8985 -0.0388 60 60 60
5.8229 4.1502 -0.0572 60 60 60
5.7990 2.9648 -0.0155 60 60 60
2.6989 0.4592 1.0060 60 60 60
8.6058 5.8048 -0.0807 60 60 60
5.8438 1.3495 0.0211 60 60 60
9.1600 9.5279 2.0760 60 60 60
5.6873 -6.0425 0.3382 60 60 60
4.0388 -4.8893 1.1443 60 60 60
6.8041 -5.4975 0.0334 60 60 60
4.5826 2.2641 -0.0069 60 60 60
9.5618 -9.1313 2.8775 60 60 60
5.2625 -0.9997 0.0102 60 60 60
5.2747 -5.1355 -1.7937 60 60 60
3.9417 -4.9517 0.3115 60 60 60
4.4318 -5.1893 0.7849 60 60 60
3.8831 -3.7491 -0.0520 60 60 60
22.2141 -16.0871 5.1658 60 60 60
4.4720 -1.9119 -0.0207 60 60 60
6.9652 -5.3283 0.0254 60 60 60
5.8387 1.4093 0.0179 60 60 60
4.9168 -2.2751 -0.0304 60 60 60
7.5157 -4.6888 -0.0049 60 60 60
2.4983 -2.9672 -0.0350 60 60 60
2.7891 -4.3829 0.2532 60 60 60
3.5712 -6.5508 0.1956 60 60 60
7.3667 -6.0396 0.0723 60 60 60
22.7984 -13.9140 4.4114 60 60 60
4.1838 -4.9922 1.1219 60 60 60
11.4785 -7.7214 0.1093 60 60 60
7.4080 5.9421 -0.1003 60 60 60
5.7717 -3.0740 -0.0439 60 60 60
2.9580 -2.8724 -0.0375 60 60 60
10.6374 -6.0333 0.0375 60 60 60
6.1545 3.3888 -0.0256 60 60 60
10.1670 -14.8816 0.1438 60 60 60
5.3192 0.6216 0.0179 60 60 60
4.4361 -1.9996 -0.0239 60 60 60
4.2812 3.4428 -0.0584 60 60 60
5.7807 3.0312 -0.0200 60 60 60
5.3256 3.0434 -0.0274 60 60 60
10.9894 9.9755 1.0784 60 60 60
2.7120 -0.4247 1.0005 60 60 60
7.6684 5.2374 -0.0663 60 60 60
7.2152 -4.0455 -0.0558 60 60 60
5.8430 4.1172 -0.0567 60 60 60
3.7122 3.1832 -0.0505 60 60 60
4.6450 -3.9994 -0.0534 60 60 60
2.3577 -4.0139 0.8584 60 60 60
5.7578 -5.8102 1.4269 60 60 60
3.5065 -3.2710 -0.0364 60 60 60
3.6482 -8.7548 -0.0409 60 60 60
5.6536 -4.7950 0.0084 60 60 60
6.7218 3.4713 -0.0208 60 60 60
3.5161 -4.0513 -0.0476 60 60 60
4.5473 -5.1058 2.2401 60 60 60
5.7221 -4.0832 -0.0473 60 60 60
2.4704 -3.4295 -0.0282 60 60 60
8.5899 -6.0265 0.0968 60 60 60
2.3601 -4.2610 0.0014 60 60 60
3.8036 -4.7896 0.2285 60 60 60
3.7009 -3.4766 -0.0423 60 60 60
17.7803 -11.5825 1.5023 60 60 60
9.7954 9.7312 -0.0785 60 60 60
2.7972 -3.5305 -0.0425 60 60 60
3.7866 -4.4143 0.0495 60 60 60
3.8704 -9.5041 0.0399 60 60 60
4.4859 3.7346 -0.0603 60 60 60
5.3225 -0.6153 0.0127 60 60 60
11.0931 10.0360 1.7335 60 60 60
15.4139 -9.2426 0.3426 60 60 60
5.4023 -2.8757 -0.0415 60 60 60
8.9582 -5.5217 0.0815 60 60 60
5.5502 4.6137 -0.0726 60 60 60
5.5911 3.4703 -0.0358 60 60 60
4.7500 -3.2156 -0.0408 60 60 60
4.0274 -5.1550 0.6949 60 60 60
14.7481 -11.0009 0.3457 60 60 60
5.1957 -10.4612 0.0226 60 60 60
4.2600 3.4608 -0.0567 60 60 60
11.8527 -6.8808 0.1098 60 60 60
6.6344 5.5536 -0.1021 60 60 60
3.1325 -4.2829 -0.0333 60 60 60
5.6182 -0.5198 0.0207 60 60 60
5.9354 5.2299 -0.0941 60 60 60
5.9906 0.0879 0.0207 60 60 60
4.5276 -4.7191 2.2119 60 60 60
6.7209 -4.6514 -0.0243 60 60 60
5.5711 4.5814 -0.0716 60 60 60
5.7311 -2.0761 -0.0275 60 60 60
2.5190 -4.0680 0.2765 60 60 60
3.1544 -4.3804 0.0596 60 60 60
3.2540 -4.4178 1.8373 60 60 60
5.2319 1.1856 0.0134 60 60 60
13.0431 10.3027 3.5353 60 60 60
5.5034 -1.4293 -0.0024 60 60 60
6.1497 -6.1953 1.9588 60 60 60
4.8579 5.5995 -0.1182 60 60 60
4.4920 -5.2743 0.9190 60 60 60
2.7176 -2.8383 -0.0447 60 60 60
4.8175 -8.1286 -0.0642 60 60 60
4.1775 -9.8447 0.4506 60 60 60
3.7950 -4.7408 1.1798 60 60 60
8.0285 4.4135 -0.0524 60 60 60
4.8524 -9.1634 -0.0080 60 60 60
2.3727 -4.1683 0.4958 60 60 60
9.1325 9.5635 2.6626 60 60 60
10.1546 9.8284 0.8167 60 60 60
6.0445 6.5190 -0.1406 60 60 60
7.2042 4.2709 -0.0537 60 60 60
5.6007 -5.8607 0.3753 60 60 60
2.4174 -3.9857 1.5641 60 60 60
5.2333 2.2934 -0.0056 60 60 60
4.8421 3.1764 -0.0394 60 60 60
14.9441 -10.3824 0.3488 60 60 60
4.9254 1.3584 0.0037 60 60 60
5.4901 -1.5135 -0.0065 60 60 60
11.9332 10.3609 3.8322 60 60 60
5.5179 -3.5531 -0.0529 60 60 60
5.1277 -3.3692 -0.0506 60 60 60
6.2599 -6.0102 0.0597 60 60 60
11.3007 10.0782 2.4009 60 60 60
19.1689 -10.6252 0.4764 60 60 60
4.5901 -4.7240 1.2422 60 60 60
6.0142 2.3701 -0.0013 60 60 60
4.1335 -3.4877 -0.0498 60 60 60
2.3095 -3.7381 0.0963 60 60 60
4.5029 -4.7426 0.3981 60 60 60
2.5526 -3.1588 -0.0358 60 60 60
17.8435 -11.0666 1.0268 60 60 60
5.5748 -0.9029 0.0164 60 60 60
4.6019 2.9144 -0.0331 60 60 60
9.2983 9.6452 2.6710 60 60 60
8.1014 8.8618 -0.0681 60 60 60
9.9143 9.7453 -0.0947 60 60 60
12.3045 8.7725 0.0001 60 60 60
5.5219 -4.2462 -0.0273 60 60 60
4.5583 2.3373 -0.0128 60 60 60
2.4053 -4.0287 0.5295 60 60 60
5.8097 -12.1663 0.0467 60 60 60
7.3377 -7.0260 1.7452 60 60 60
2.7090 0.3861 1.0084 60 60 60
4.1866 -5.4969 0.6245 60 60 60
2.6928 -0.5292 0.9972 60 60 60
2.5057 -3.9801 1.9566 60 60 60
12.5848 7.8603 0.0130 60 60 60
3.8494 -4.3977 0.0401 60 60 60
3.7323 3.1679 -0.0523 60 60 60
5.8884 5.3039 -0.0968 60 60 60
2.9350 -3.4445 -0.0454 60 60 60
2.5844 -3.9213 -0.0320 60 60 60
2.4946 -3.9568 1.0596 60 60 60
5.3400 0.1833 0.0225 60 60 60
4.1713 -6.0035 0.8778 60 60 60
5.6634 2.1427 0.0008 60 60 60
5.5554 1.0428 0.0206 60 60 60
5.8663 1.2327 0.0221 60 60 60
5.0610 0.5133 0.0167 60 60 60
4.0015 3.2713 -0.0498 60 60 60
3.0621 -3.9749 -0.0382 60 60 60
2.5288 -3.9750 1.0531 60 60 60
9.7558 9.7993 1.4637 60 60 60
8.6192 -5.9761 0.0967 60 60 60
3.8497 -3.3318 -0.0429 60 60 60
5.0205 4.4889 -0.0808 60 60 60
5.0972 4.3644 -0.0737 60 60 60
7.1067 -6.3610 0.0769 60 60 60
3.6802 3.2210 -0.0520 60 60 60
5.1948 1.4474 0.0008 60 60 60
5.0247 2.0053 -0.0095 60 60 60
9.0761 -4.4284 -0.0763 60 60 60
5.1230 3.4401 -0.0407 60 60 60
4.8690 -8.1123 -0.0680 60 60 60
4.5368 2.4141 -0.0210 60 60 60
5.6305 0.0292 0.0275 60 60 60
5.1978 -1.4159 -0.0065 60 60 60
3.6379 -4.2399 -0.0033 60 60 60
4.1738 -3.9738 -0.0619 60 60 60
5.8843 1.1142 0.0239 60 60 60
11.0751 6.8523 -0.0389 60 60 60
2.5665 -4.0226 1.6544 60 60 60
5.1295 1.7046 -0.0057 60 60 60
3.9474 -3.2478 -0.0486 60 60 60
6.2012 1.6453 0.0127 60 60 60
2.5073 -3.6793 -0.0328 60 60 60
5.0619 -0.4799 0.0144 60 60 60
5.0765 0.4415 0.0129 60 60 60
5.7882 -1.9023 -0.0255 60 60 60
5.0102 -0.9400 0.0045 60 60 60
11.1295 10.0979 3.0714 60 60 60
6.9747 -6.4466 0.0876 60 60 60
22.5638 -14.6482 5.6838 60 60 60
4.8755 -4.1463 -0.0012 60 60 60
4.0330 3.2282 -0.0477 60 60 60
9.8560 -8.5593 0.8272 60 60 60
2.5503 -3.6622 -0.0356 60 60 60
5.4367 1.6447 0.0093 60 60 60
6.1776 -1.9511 -0.0201 60 60 60
4.7561 -2.5874 -0.0341 60 60 60
2.7001 -6.1821 0.2148 60 60 60
8.2044 6.8031 -0.1143 60 60 60
6.3555 6.0734 -0.1264 60 60 60
6.3914 -4.9956 -0.0043 60 60 60
4.0513 -3.0951 -0.0384 60 60 60
4.8393 -3.7894 -0.0576 60 60 60
5.6714 -5.8303 1.7796 60 60 60
2.4521 -3.0053 -0.0395 60 60 60
7.4788 -7.0567 0.3926 60 60 60
4.2635 -3.8487 -0.0529 60 60 60
4.5360 1.7447 -0.0027 60 60 60
6.4931 4.1324 -0.0503 60 60 60
2.2751 -3.5314 -0.0281 60 60 60
5.5448 1.0975 0.0206 60 60 60
6.4145 -6.4677 0.9768 60 60 60
3.2638 -4.4449 1.7214 60 60 60
3.6042 -6.5205 0.1975 60 60 60
10.4592 9.9438 2.0721 60 60 60
4.9420 -1.3032 -0.0058 60 60 60
3.9369 3.3562 -0.0538 60 60 60
2.3769 -4.0121 1.6650 60 60 60
6.0022 2.4003 -0.0012 60 60 60
5.3468 4.9558 -0.0905 60 60 60
2.6424 -3.1062 -0.0380 60 60 60
3.8584 -5.1305 0.5771 60 60 60
4.7559 1.9041 -0.0072 60 60 60
22.4338 -15.3089 4.4915 60 60 60
4.0446 -4.9699 0.9992 60 60 60
10.9077 9.9403 0.4251 60 60 60
5.0020 -4.0863 -0.0202 60 60 60
6.3541 -3.0177 -0.0505 60 60 60
4.5878 -1.6031 -0.0120 60 60 60
6.5790 -3.9210 -0.0673 60 60 60
5.0312 2.7738 -0.0199 60 60 60
4.4519 3.1830 -0.0466 60 60 60
5.7434 -3.1359 -0.0455 60 60 60
4.8131 1.7383 -0.0031 60 60 60
5.3006 -0.7435 0.0140 60 60 60
4.5770 -4.8214 1.2376 60 60 60
2.4193 -4.0060 0.4247 60 60 60
7.8834 -5.4698 0.0465 60 60 60
4.3617 3.9108 -0.0694 60 60 60
3.6280 -2.8354 -0.0455 60 60 60
4.3949 2.0958 -0.0128 60 60 60
3.7863 -3.0022 -0.0409 60 60 60
5.0399 -0.6976 0.0112 60 60 60
6.1029 -3.5892 -0.0639 60 60 60
17.5357 -12.8936 1.5231 60 60 60
4.4312 -3.0887 -0.0384 60 60 60
4.4503 4.4563 -0.0852 60 60 60
2.5305 -2.9436 -0.0336 60 60 60
4.8492 2.4261 -0.0179 60 60 60
4.9418 1.2348 0.0113 60 60 60
5.5413 -1.1796 0.0075 60 60 60
3.2862 -4.4461 1.3693 60 60 60
2.3175 -4.0704 0.6387 60 60 60
5.7527 -4.0617 -0.0512 60 60 60
7.2810 6.2444 -0.1154 60 60 60
3.6682 -4.2337 -0.0086 60 60 60
17.8590 -14.6439 0.4953 60 60 60
10.2175 7.9210 2.5699 60 60 60
10.3460 7.9234 2.8617 60 60 60
4.9035 -2.2982 -0.0298 60 60 60
2.9080 -4.1466 0.7614 60 60 60
3.9844 3.2924 -0.0504 60 60 60
6.4728 -4.8929 -0.0061 60 60 60
2.7086 -0.4674 0.9974 60 60 60
6.9434 4.9093 -0.0763 60 60 60
11.7858 -16.3887 0.3733 60 60 60
6.2361 3.1430 -0.0144 60 60 60
3.8808 -4.8236 1.1648 60 60 60
2.5357 -3.1696 -0.0360 60 60 60
5.0946 -4.0354 -0.0331 60 60 60
22.5162 -14.9928 4.4724 60 60 60
2.4387 -3.9674 0.6481 60 60 60
10.7376 10.2187 4.0700 60 60 60
4.8581 3.8868 -0.0587 60 60 60
6.4104 -2.8435 -0.0440 60 60 60
2.7338 -0.2265 1.0062 60 60 60
9.4878 -15.1140 0.1849 60 60 60
5.7242 -2.1061 -0.0291 60 60 60
12.4739 -10.1033 0.2038 60 60 60
10.7761 7.5144 -0.0398 60 60 60
3.0749 -4.3202 1.7305 60 60 60
5.5440 1.0683 0.0231 60 60 60
5.9689 0.5017 0.0223 60 60 60
4.4474 -4.8977 0.8176 60 60 60
4.2715 -5.0314 0.0860 60 60 60
5.3072 -0.6918 0.0145 60 60 60
5.2165 -1.3391 -0.0051 60 60 60
5.9464 -0.8561 0.0109 60 60 60
8.2083 -3.9431 -0.0717 60 60 60
18.2885 11.6789 0.0976 60 60 60
5.7340 -12.1795 0.0520 60 60 60
3.1733 -3.9039 -0.0403 60 60 60
11.2913 -8.1554 0.1061 60 60 60
4.3242 -4.9147 0.2515 60 60 60
7.7168 -7.2695 1.9689 60 60 60
5.5188 -4.8799 0.0223 60 60 60
9.1423 9.6422 0.3086 60 60 60
4.0137 -4.8751 1.9531 60 60 60
8.2761 -4.9913 0.0239 60 60 60
4.5171 -4.7639 0.6819 60 60 60
5.2671 -5.0128 -1.9457 60 60 60
14.6799 10.4681 0.0275 60 60 60
5.4408 -1.7348 -0.0145 60 60 60
4.6192 2.8925 -0.0340 60 60 60
2.3702 -3.2573 -0.0322 60 60 60
6.7252 -3.5880 -0.0588 60 60 60
5.4879 1.4272 0.0133 60 60 60
6.0761 -4.4374 -0.0257 60 60 60
7.5748 5.4835 -0.0764 60 60 60
5.5158 2.5793 -0.0113 60 60 60
3.6662 -3.5159 -0.0444 60 60 60
6.3515 4.4317 -0.0599 60 60 60
5.9378 -2.6707 -0.0333 60 60 60
6.6904 3.5897 -0.0273 60 60 60
5.9761 3.8447 -0.0464 60 60 60
14.7827 -10.9026 0.3460 60 60 60
4.5135 5.1143 -0.1041 60 60 60
7.0145 -6.4144 0.0852 60 60 60
7.3553 -3.8259 -0.0625 60 60 60
3.4535 -4.5394 1.9534 60 60 60
8.1836 7.5160 0.0587 60 60 60
5.1511 -5.1053 0.0566 60 60 60
8.3772 -7.6606 0.4771 60 60 60
2.8796 -4.0790 -0.0337 60 60 60
5.5021 -1.4581 -0.0050 60 60 60
5.3013 -0.7168 0.0154 60 60 60
2.9641 -4.2271 0.3872 60 60 60
2.7891 -4.1502 1.7443 60 60 60
3.2964 -6.6310 0.2131 60 60 60
3.1115 -4.3260 1.8408 60 60 60
8.1564 -7.5182 0.5118 60 60 60
5.0536 0.6097 0.0152 60 60 60
6.8692 -3.2599 -0.0547 60 60 60
4.9158 3.8080 -0.0574 60 60 60
9.9892 -15.0697 2.1971 60 60 60
9.7350 -15.1418 0.1630 60 60 60
5.8981 -1.2726 -0.0006 60 60 60
5.3514 2.0047 -0.0049 60 60 60
2.8552 -3.4904 -0.0418 60 60 60
4.8239 -2.4384 -0.0279 60 60 60
8.7194 -8.5033 0.1072 60 60 60
8.1240 -6.5944 0.1149 60 60 60
3.8260 -8.6143 -0.0338 60 60 60
5.5831 3.5065 -0.0397 60 60 60
5.6723 2.1137 0.0015 60 60 60
14.2302 -12.3401 0.3432 60 60 60
3.4333 -4.5772 1.7132 60 60 60
5.8265 1.5303 0.0117 60 60 60
5.4672 3.7174 -0.0448 60 60 60
10.2981 7.9006 2.5706 60 60 60
4.7935 -9.1757 -0.0034 60 60 60
5.4866 -5.8474 0.2138 60 60 60
4.9097 -2.9708 -0.0385 60 60 60
4.9443 -2.1991 -0.0266 60 60 60
2.4527 -3.9243 0.7620 60 60 60
6.4224 -4.9642 -0.0060 60 60 60
5.1337 -4.5234 0.0111 60 60 60
5.8852 -1.3933 -0.0063 60 60 60
3.9960 -4.6761 0.0770 60 60 60
11.8630 10.1178 1.0214 60 60 60
3.0158 -4.2405 1.0698 60 60 60
3.0205 -4.3632 0.0915 60 60 60
7.1488 -5.1150 0.0171 60 60 60
5.2010 -3.2282 -0.0446 60 60 60
3.9423 -5.3526 0.5281 60 60 60
5.7097 -5.8071 1.7781 60 60 60
5.2738 -0.9494 0.0098 60 60 60
5.9767 -2.6169 -0.0377 60 60 60
2.3617 -4.0038 1.2685 60 60 60
4.7941 -3.8331 -0.0550 60 60 60
9.7220 9.8803 3.0050 60 60 60
6.0272 2.3048 0.0023 60 60 60
4.1350 -4.9406 1.9529 60 60 60
4.8198 1.7143 -0.0020 60 60 60
7.8326 4.9309 -0.0652 60 60 60
23.0021 -13.1670 4.3732 60 60 60
2.7412 -2.8396 -0.0533 60 60 60
11.4232 10.0008 0.0324 60 60 60
8.8292 -11.2100 0.1618 60 60 60
5.1342 -10.4819 0.0259 60 60 60
5.1057 -1.8039 -0.0226 60 60 60
2.8349 -4.1219 0.6648 60 60 60
5.4517 1.5911 0.0097 60 60 60
4.5037 -5.1877 1.8075 60 60 60
8.6480 5.6957 -0.0778 60 60 60
5.0243 -0.8935 0.0026 60 60 60
2.8915 -4.4020 0.3530 60 60 60
9.6864 -8.5082 0.2710 60 60 60
13.1944 -8.4409 0.2071 60 60 60
5.3529 0.1311 0.0176 60 60 60
5.6363 0.1937 0.0245 60 60 60
2.4614 -3.9261 0.2207 60 60 60
9.7525 9.7530 0.5435 60 60 60
5.2542 -1.1047 0.0041 60 60 60
4.7237 1.9718 -0.0063 60 60 60
2.7077 -0.4347 1.0014 60 60 60
4.6396 -1.4487 -0.0093 60 60 60
3.8599 -4.8226 1.6927 60 60 60
22.5991 -14.6910 4.4550 60 60 60
6.9850 -5.2820 0.0276 60 60 60
2.4520 -3.9390 1.5641 60 60 60
6.1887 -6.2256 0.2385 60 60 60
5.2046 2.3430 -0.0035 60 60 60
8.4674 -4.7447 0.0116 60 60 60
7.8289 -4.2727 -0.0240 60 60 60
5.2214 -1.2853 -0.0011 60 60 60
4.4458 -4.7693 2.4917 60 60 60
9.2100 -10.7937 0.1556 60 60 60
9.9129 -6.4908 0.1105 60 60 60
3.2120 -4.2532 -0.0410 60 60 60
5.8401 -6.0179 0.3186 60 60 60
4.7988 -4.2107 0.0038 60 60 60
5.2325 -1.2338 -0.0001 60 60 60
4.1214 -5.0418 0.6987 60 60 60
5.4544 -4.9241 0.0279 60 60 60
5.0228 1.9750 -0.0040 60 60 60
5.6243 0.4131 0.0251 60 60 60
10.8714 -5.5579 0.0327 60 60 60
3.3252 -4.5009 1.7184 60 60 60
18.0049 -10.2068 1.0219 60 60 60
4.7330 -3.2388 -0.0407 60 60 60
5.7634 1.8254 0.0042 60 60 60
5.9903 0.1767 0.0203 60 60 60
5.6370 0.2210 0.0239 60 60 60
2.3945 -3.0227 -0.0313 60 60 60
4.7783 2.5721 -0.0211 60 60 60
3.2467 -2.8713 -0.0316 60 60 60
6.9228 -4.3707 -0.0308 60 60 60
4.7108 4.1069 -0.0685 60 60 60
8.2634 6.7013 -0.1131 60 60 60
12.4105 8.2368 0.0155 60 60 60
4.4017 -4.7262 0.2743 60 60 60
9.3161 -7.4241 0.1216 60 60 60
22.1948 -16.2732 4.5534 60 60 60
12.0930 10.1184 0.6536 60 60 60
5.3570 1.9457 0.0010 60 60 60
3.4792 -4.9468 0.1084 60 60 60
5.1879 -3.2582 -0.0465 60 60 60
22.9222 -13.2809 5.5887 60 60 60
6.2183 -6.3077 1.0038 60 60 60
6.7994 -3.4459 -0.0595 60 60 60
9.7477 -6.6910 0.1192 60 60 60
4.0245 3.7458 -0.0648 60 60 60
5.1698 -5.0769 -1.9330 60 60 60
4.6063 -2.2422 -0.0273 60 60 60
5.2168 -5.5865 1.7905 60 60 60
5.9816 -3.8197 -0.0686 60 60 60
9.8481 -8.5575 0.5393 60 60 60
18.5182 -12.5646 0.4889 60 60 60
9.3967 -15.1562 0.1895 60 60 60
5.3048 0.6455 0.0228 60 60 60
10.1138 9.8045 0.5071 60 60 60
5.7898 1.6441 0.0137 60 60 60
4.8747 2.3481 -0.0125 60 60 60
2.6885 0.5999 0.9938 60 60 60
4.4213 4.4722 -0.0820 60 60 60
2.6255 -4.1997 0.2161 60 60 60
8.9379 4.9567 -0.0648 60 60 60
4.0079 -4.3037 0.0289 60 60 60
3.5283 -3.6360 -0.0435 60 60 60
8.3518 -7.6883 1.7236 60 60 60
2.8384 -4.1624 0.1890 60 60 60
22.9053 -13.4476 4.9902 60 60 60
3.5939 3.3102 -0.0532 60 60 60
4.1520 -3.9940 -0.0616 60 60 60
7.5546 5.5967 -0.0859 60 60 60
11.9618 -6.5966 0.1108 60 60 60
6.1065 2.0213 0.0083 60 60 60
3.4395 -4.9394 0.1175 60 60 60
4.2388 3.4787 -0.0550 60 60 60
8.4290 8.1440 -0.0392 60 60 60
5.9415 -5.9689 1.2300 60 60 60
2.7120 -0.3926 1.0037 60 60 60
3.2425 -3.1966 -0.0418 60 60 60
2.2956 -3.5215 -0.0281 60 60 60
4.3671 -5.1198 1.6683 60 60 60
6.3325 4.4702 -0.0612 60 60 60
6.1366 6.4025 -0.1381 60 60 60
15.5902 -8.7679 0.3406 60 60 60
18.1851 -13.5838 0.4932 60 60 60
9.2266 9.6490 -0.0009 60 60 60
5.1897 -1.4399 -0.0063 60 60 60
2.4421 -3.9437 0.2182 60 60 60
2.7792 -3.8135 -0.0337 60 60 60
11.1925 9.9887 0.3954 60 60 60
6.6818 -3.6538 -0.0565 60 60 60
2.7000 0.5033 1.0007 60 60 60
9.4288 9.6802 2.6755 60 60 60
5.2963 -0.7687 0.0141 60 60 60
4.6005 3.5537 -0.0501 60 60 60
4.3386 3.9313 -0.0683 60 60 60
3.4565 3.1076 -0.0564 60 60 60
5.8369 2.8713 -0.0131 60 60 60
13.2562 -8.2757 0.2077 60 60 60
4.8115 -1.7844 -0.0223 60 60 60
8.5233 -4.6584 0.0089 60 60 60
3.1658 -4.3646 1.9538 60 60 60
4.8282 -4.7160 0.0399 60 60 60
18.8618 -11.4467 0.4843 60 60 60
3.1048 -4.4097 0.0606 60 60 60
9.4234 -7.2583 0.1204 60 60 60
3.7470 -4.7159 1.3149 60 60 60
4.7245 -2.6305 -0.0321 60 60 60
12.3544 -10.3602 0.2028 60 60 60
5.5361 -1.2068 0.0070 60 60 60
18.1449 -13.7086 0.4937 60 60 60
2.8132 -3.5115 -0.0392 60 60 60
5.9859 -0.1180 0.0214 60 60 60
4.0414 -9.4739 0.0282 60 60 60
5.0591 -4.0474 -0.0265 60 60 60
2.4400 -3.9292 0.3344 60 60 60
4.4843 -4.7224 0.2594 60 60 60
6.7365 -5.5634 0.0371 60 60 60
6.4194 4.2779 -0.0533 60 60 60
11.2083 6.5138 -0.0375 60 60 60
3.9871 -4.3257 0.0280 60 60 60
5.5054 1.3163 0.0173 60 60 60
2.5130 -3.9313 0.0958 60 60 60
2.2748 -3.0903 -0.0316 60 60 60
10.5010 7.9410 -0.0316 60 60 60
10.1138 -6.2414 0.0994 60 60 60
11.6482 10.4724 3.4727 60 60 60
4.8532 1.6208 -0.0016 60 60 60
3.9912 -3.1807 -0.0432 60 60 60
12.3445 8.5984 0.0046 60 60 60
5.3383 -0.3061 0.0190 60 60 60
5.7031 2.0280 0.0016 60 60 60
5.4942 -5.8524 0.7469 60 60 60
6.0753 -2.2976 -0.0269 60 60 60
4.2964 -3.7970 -0.0485 60 60 60
6.2607 3.1162 -0.0176 60 60 60
5.8531 2.8048 -0.0085 60 60 60
4.4888 -4.5468 2.4689 60 60 60
6.8820 5.0353 -0.0802 60 60 60
4.3879 -4.8217 2.0807 60 60 60
5.3251 -0.3564 0.0229 60 60 60
3.6262 -3.9645 -0.0483 60 60 60
4.5373 -4.7429 1.9379 60 60 60
7.6995 5.1972 -0.0679 60 60 60
3.6191 -4.4904 0.0648 60 60 60
2.4063 -4.0227 0.6387 60 60 60
2.6733 0.5721 1.0045 60 60 60
9.9515 9.8587 2.0764 60 60 60
5.6040 0.6597 0.0242 60 60 60
6.9827 7.4851 0.0001 60 60 60
9.3541 -7.3689 0.1209 60 60 60
4.6555 -2.7468 -0.0334 60 60 60
5.8429 -1.6639 -0.0177 60 60 60
4.4148 -3.1102 -0.0384 60 60 60
15.4569 -9.1526 0.3415 60 60 60
9.4394 9.7148 0.8759 60 60 60
3.5250 -6.5442 0.2028 60 60 60
2.9743 -4.4410 0.4520 60 60 60
4.9766 2.1299 -0.0117 60 60 60
4.5275 -4.8301 2.3608 60 60 60
5.2264 4.1484 -0.0627 60 60 60
4.6132 -1.5898 -0.0209 60 60 60
2.5811 -4.0286 0.1635 60 60 60
3.9245 -4.3442 0.0374 60 60 60
6.2004 6.7828 -0.0030 60 60 60
5.1592 -1.5971 -0.0142 60 60 60
11.3847 -7.9371 0.1080 60 60 60
4.6949 -4.6618 0.0797 60 60 60
10.5684 7.8082 -0.0314 60 60 60
4.1296 3.1418 -0.0554 60 60 60
3.7902 3.0875 -0.0467 60 60 60
5.9889 3.8084 -0.0441 60 60 60
5.2704 5.1048 -0.1028 60 60 60
9.5413 9.7198 2.3784 60 60 60
5.3248 -0.4598 0.0192 60 60 60
2.4131 -3.9557 1.7623 60 60 60
5.9767 -0.2950 0.0219 60 60 60
4.3584 -3.7331 -0.0493 60 60 60
12.6321 -9.7711 0.2042 60 60 60
3.2049 -4.6102 0.1134 60 60 60
4.4425 -4.7979 1.6658 60 60 60
7.1291 6.5372 -0.1268 60 60 60
2.4662 -3.9518 1.8579 60 60 60
5.6342 0.1381 0.0257 60 60 60
5.3967 6.0561 -0.1341 60 60 60
11.7660 -16.1550 0.3846 60 60 60
3.8876 -4.7482 0.0813 60 60 60
8.0697 7.3162 2.4832 60 60 60
8.4955 -4.6998 0.0104 60 60 60
5.5273 5.8682 -0.1241 60 60 60
4.8924 -3.7084 -0.0544 60 60 60
8.0666 -5.2842 0.0331 60 60 60
2.4220 -4.0022 0.5344 60 60 60
4.3698 -5.1160 1.8108 60 60 60
6.1718 4.7634 -0.0695 60 60 60
6.3223 -3.0822 -0.0502 60 60 60
6.3978 -2.8760 -0.0445 60 60 60
4.7753 1.8302 -0.0025 60 60 60
5.9917 0.2353 0.0193 60 60 60
5.1006 3.5032 -0.0466 60 60 60
6.3586 -2.9779 -0.0465 60 60 60
4.4983 -1.8465 -0.0186 60 60 60
2.3823 -3.7450 -0.0329 60 60 60
4.6304 2.8658 -0.0318 60 60 60
5.7477 -5.4954 0.0444 60 60 60
22.7456 -14.0559 5.0269 60 60 60
4.8081 -2.4914 -0.0328 60 60 60
6.3329 -5.0562 -0.0014 60 60 60
6.0578 -5.3281 0.0118 60 60 60
2.2948 -4.1406 0.0579 60 60 60
14.6922 9.9808 0.0452 60 60 60
2.5917 -3.6413 -0.0366 60 60 60
8.1172 7.5033 1.7732 60 60 60
4.0685 3.7110 -0.0677 60 60 60
9.5266 -8.6595 3.6995 60 60 60
13.6572 -7.2138 0.2076 60 60 60
6.3933 -4.1322 -0.0529 60 60 60
2.6950 -3.5875 -0.0396 60 60 60
3.9862 -9.4899 0.0311 60 60 60
2.8054 -4.4873 0.3441 60 60 60
4.5704 1.6577 -0.0022 60 60 60
2.8656 -4.1793 1.9544 60 60 60
2.3500 -3.2625 -0.0295 60 60 60
5.6809 -5.8548 1.4307 60 60 60
8.0971 7.1778 2.4740 60 60 60
4.9642 3.7226 -0.0528 60 60 60
2.9293 -3.7276 -0.0373 60 60 60
4.4967 -4.7979 2.0788 60 60 60
4.4676 -4.7543 0.6904 60 60 60
5.7511 1.8527 0.0054 60 60 60
2.2927 -3.0823 -0.0324 60 60 60
5.0864 -5.1484 0.0613 60 60 60
4.8297 3.2039 -0.0413 60 60 60
18.9601 -11.0715 0.4836 60 60 60
10.3231 9.8673 1.1215 60 60 60
12.1938 9.4431 -0.0241 60 60 60
4.5841 -4.0733 -0.0550 60 60 60
22.2774 -15.7403 5.7691 60 60 60
5.9884 0.2654 0.0201 60 60 60
5.6011 5.7520 -0.1172 60 60 60
14.6860 9.7362 0.0551 60 60 60
5.5256 2.5500 -0.0101 60 60 60
3.5080 -5.3591 0.4407 60 60 60
2.5637 -3.9283 0.0869 60 60 60
11.8915 10.5610 3.8525 60 60 60
5.1143 -1.7789 -0.0223 60 60 60
11.7245 10.0541 -0.0053 60 60 60
5.0598 0.5375 0.0161 60 60 60
5.4947 3.6525 -0.0407 60 60 60
6.2752 4.5810 -0.0647 60 60 60
2.9881 -4.2588 1.8441 60 60 60
4.9848 -3.5780 -0.0524 60 60 60
5.8188 1.4969 0.0173 60 60 60
5.3211 0.6739 0.0146 60 60 60
5.0499 0.6588 0.0140 60 60 60
11.5648 -7.5026 0.1114 60 60 60
5.3155 -0.3813 0.0260 60 60 60
2.3295 -4.0046 1.8641 60 60 60
4.2404 -5.0474 0.0884 60 60 60
2.5145 -3.1745 -0.0323 60 60 60
11.1481 10.3063 3.7706 60 60 60
2.4882 -2.9903 -0.0430 60 60 60
9.7499 6.1909 -0.0652 60 60 60
4.0382 -4.6801 0.0674 60 60 60
3.8340 -3.3529 -0.0444 60 60 60
5.8334 2.9075 -0.0172 60 60 60
4.7450 1.9262 -0.0066 60 60 60
5.4609 2.6903 -0.0109 60 60 60
12.8386 -9.2607 0.2073 60 60 60
4.4219 -4.8275 1.6667 60 60 60
5.7922 -5.4820 0.0382 60 60 60
3.3280 -4.1731 -0.0413 60 60 60
6.9245 -3.1108 -0.0518 60 60 60
4.0360 -4.0880 -0.0572 60 60 60
3.5875 -3.2168 -0.0439 60 60 60
5.3525 -4.9853 0.0380 60 60 60
5.2482 -3.9943 -0.0644 60 60 60
4.9238 -1.3753 -0.0073 60 60 60
3.9013 -3.7275 -0.0507 60 60 60
6.2862 -4.2521 -0.0455 60 60 60
8.1401 -4.1261 -0.0747 60 60 60
2.5223 -3.9868 1.5574 60 60 60
11.6144 10.0979 1.3786 60 60 60
4.0855 -3.0573 -0.0391 60 60 60
5.1265 -1.7547 -0.0234 60 60 60
4.9277 -2.9115 -0.0321 60 60 60
4.6239 -1.5178 -0.0134 60 60 60
10.1743 10.2227 3.6966 60 60 60
11.0417 10.0080 1.4048 60 60 60
4.7350 -8.1981 -0.0658 60 60 60
4.7572 2.6236 -0.0240 60 60 60
19.0418 -10.8365 0.4817 60 60 60
4.5559 -4.8416 1.5205 60 60 60
14.7105 -11.1053 0.3454 60 60 60
4.8946 1.4252 0.0082 60 60 60
3.3251 -4.5826 0.0984 60 60 60
8.1440 -5.1506 0.0325 60 60 60
11.3705 10.0731 1.7260 60 60 60
5.4530 1.6210 0.0059 60 60 60
5.1991 3.2983 -0.0357 60 60 60
6.6607 -3.6870 -0.0556 60 60 60
2.3110 -3.2757 -0.0259 60 60 60
6.2758 -3.1812 -0.0509 60 60 60
7.7772 -6.9686 0.1285 60 60 60
7.7833 -5.5857 0.0518 60 60 60
3.5624 -4.6228 1.7071 60 60 60
5.2781 2.1897 -0.0055 60 60 60
14.5117 -11.6101 0.3452 60 60 60
3.8110 -5.1294 0.2963 60 60 60
3.8619 -4.2043 -0.0463 60 60 60
9.1878 -7.6603 0.1194 60 60 60
5.9893 -0.0301 0.0210 60 60 60
3.9153 3.3709 -0.0513 60 60 60
4.7910 2.5494 -0.0210 60 60 60
2.4110 -3.8108 0.0474 60 60 60
5.3344 2.0287 -0.0021 60 60 60
10.6148 10.2064 4.0583 60 60 60
2.8949 -6.7151 0.2410 60 60 60
4.3142 -5.0976 1.8123 60 60 60
2.2747 -3.7782 0.0869 60 60 60
5.6822 5.6490 -0.1148 60 60 60
5.8215 -1.7201 -0.0163 60 60 60
8.7803 5.3797 -0.0725 60 60 60
4.5952 -2.8365 -0.0329 60 60 60
4.2650 4.0312 -0.0742 60 60 60
4.3326 -8.4634 -0.0635 60 60 60
4.4735 -3.0169 -0.0347 60 60 60
5.2438 -5.0449 -1.9495 60 60 60
13.5990 -7.3750 0.2077 60 60 60
6.3365 -3.0491 -0.0498 60 60 60
4.5509 -4.8511 1.0965 60 60 60
5.7012 3.2180 -0.0256 60 60 60
4.4083 -4.7630 2.7681 60 60 60
6.3707 -5.9231 0.0530 60 60 60
9.1444 -5.3056 0.0685 60 60 60
4.0564 -9.8569 0.4592 60 60 60
4.9266 -2.2502 -0.0294 60 60 60
5.5007 1.3725 0.0138 60 60 60
9.6719 -8.5066 3.6921 60 60 60
5.0213 0.9013 0.0095 60 60 60
5.6791 -5.8454 1.6054 60 60 60
4.0491 -3.6011 -0.0565 60 60 60
8.1550 8.7203 -0.0604 60 60 60
4.5929 -4.8593 0.8032 60 60 60
11.8655 -15.6864 0.8454 60 60 60
6.0226 2.3383 -0.0001 60 60 60
17.5798 -12.3201 1.5155 60 60 60
5.2588 2.2114 -0.0020 60 60 60
2.7012 -0.4875 0.9985 60 60 60
3.2984 -4.4200 1.1350 60 60 60
3.6129 3.2946 -0.0541 60 60 60
5.6966 2.0579 0.0002 60 60 60
3.6386 -4.6837 1.9544 60 60 60
10.9912 10.3861 3.7697 60 60 60
5.9945 3.7655 -0.0389 60 60 60
5.5855 -3.4348 -0.0507 60 60 60
10.9623 -8.7794 0.1059 60 60 60
5.0231 -3.5282 -0.0528 60 60 60
9.5567 -9.2313 2.8856 60 60 60
3.3475 -3.7884 -0.0451 60 60 60
7.1566 4.3982 -0.0582 60 60 60
10.6756 9.9112 0.7732 60 60 60
3.0780 -3.0427 -0.0406 60 60 60
5.9819 0.1462 0.0236 60 60 60
4.4448 1.9878 -0.0108 60 60 60
5.7017 -4.7332 0.0087 60 60 60
2.7543 -0.2078 0.9976 60 60 60
6.7199 5.3781 -0.0941 60 60 60
9.9918 -6.3902 0.1064 60 60 60
4.3606 4.5552 -0.0879 60 60 60
5.5604 -1.0692 0.0095 60 60 60
4.2197 -5.1935 0.8106 60 60 60
14.7182 9.0563 0.0765 60 60 60
2.7509 -4.5016 0.3488 60 60 60
5.0928 1.7745 -0.0010 60 60 60
11.5948 -7.4321 0.1117 60 60 60
9.7686 6.1259 -0.0632 60 60 60
14.3094 -12.1297 0.3440 60 60 60
4.4556 -3.0380 -0.0339 60 60 60
9.4033 9.7422 1.4799 60 60 60
3.8583 -4.8142 1.8231 60 60 60
9.5416 -8.6460 0.8492 60 60 60
4.8958 3.8344 -0.0576 60 60 60
5.3293 0.3371 0.0241 60 60 60
5.5818 -4.2031 -0.0340 60 60 60
5.0068 -2.7924 -0.0341 60 60 60
9.1386 7.4413 0.7103 60 60 60
5.4300 2.7787 -0.0151 60 60 60
2.3232 -4.0144 1.5685 60 60 60
2.9777 -4.3476 -0.0222 60 60 60
9.6918 -8.7753 1.6982 60 60 60
2.4795 -3.8542 0.0163 60 60 60
4.1935 -5.2193 0.5143 60 60 60
5.6340 5.7248 -0.1188 60 60 60
5.8908 -4.5879 -0.0084 60 60 60
2.4788 -3.1963 -0.0325 60 60 60
8.6954 5.5934 -0.0767 60 60 60
4.4539 -5.5053 0.5878 60 60 60
2.4681 -3.7079 -0.0360 60 60 60
4.3794 -2.1313 -0.0294 60 60 60
5.0037 -4.5928 0.0265 60 60 60
5.7909 1.6759 0.0102 60 60 60
7.3074 6.2005 -0.1145 60 60 60
3.0004 -4.3305 -0.0211 60 60 60
4.0560 -9.8039 0.9486 60 60 60
5.4348 -3.7036 -0.0578 60 60 60
5.3151 6.1662 -0.1397 60 60 60
14.5601 -11.5162 0.3444 60 60 60
2.4469 -3.9386 0.4403 60 60 60
7.7777 5.0732 -0.0696 60 60 60
13.1554 -8.5183 0.2079 60 60 60
6.6114 5.5936 -0.1034 60 60 60
2.4990 -3.9615 0.9553 60 60 60
3.8699 3.4380 -0.0570 60 60 60
22.3152 -15.7848 4.5215 60 60 60
5.5283 1.1508 0.0228 60 60 60
4.8355 1.6400 0.0029 60 60 60
6.0724 -2.3320 -0.0302 60 60 60
6.3054 4.5001 -0.0594 60 60 60
14.7375 8.8395 0.0821 60 60 60
7.1268 4.4871 -0.0623 60 60 60
4.4916 -5.1890 1.3695 60 60 60
9.8345 9.8432 2.0775 60 60 60
5.4850 -2.7090 -0.0395 60 60 60
5.0151 -4.8611 2.8235 60 60 60
2.9116 -4.5115 0.4445 60 60 60
8.5839 -4.5731 0.0051 60 60 60
5.8435 2.8371 -0.0102 60 60 60
9.3796 9.7157 2.9797 60 60 60
8.5510 5.9736 -0.0874 60 60 60
2.4997 -3.9603 1.1600 60 60 60
5.3914 -1.8972 -0.0178 60 60 60
4.5787 -5.5510 0.7230 60 60 60
9.7214 -6.7515 0.1183 60 60 60
4.2286 -4.5541 0.0573 60 60 60
6.0915 2.1204 0.0027 60 60 60
5.8592 4.0825 -0.0550 60 60 60
22.6882 -14.1896 5.6509 60 60 60
3.6908 -3.9102 -0.0484 60 60 60
12.0582 10.1670 3.1124 60 60 60
7.4483 -5.9744 0.0661 60 60 60
11.3641 10.0204 0.7152 60 60 60
2.5573 -4.3129 0.3118 60 60 60
18.2277 -13.4518 0.4928 60 60 60
6.1051 -2.2393 -0.0292 60 60 60
4.7831 -2.5401 -0.0339 60 60 60
5.7097 5.6155 -0.1143 60 60 60
4.6157 1.5003 0.0037 60 60 60
3.5343 -4.8353 0.2657 60 60 60
4.2155 -5.0031 1.9535 60 60 60
4.0721 -9.8098 1.4287 60 60 60
3.0755 -3.6357 -0.0407 60 60 60
10.0725 -6.2881 0.1021 60 60 60
9.7855 -6.6374 0.1178 60 60 60
8.1586 -4.0815 -0.0743 60 60 60
4.3420 -5.0685 1.9532 60 60 60
2.9926 -4.2618 1.9543 60 60 60
5.3009 -0.7950 0.0104 60 60 60
3.7963 -3.3879 -0.0435 60 60 60
6.3801 6.0304 -0.1243 60 60 60
5.1443 3.4170 -0.0423 60 60 60
14.4668 -11.7114 0.3455 60 60 60
7.6878 -5.7074 0.0552 60 60 60
7.1654 -6.2728 0.0780 60 60 60
3.1538 -3.2706 -0.0420 60 60 60
3.9560 -4.3361 0.0324 60 60 60
4.4344 3.8120 -0.0647 60 60 60
4.5055 -4.5730 2.3370 60 60 60
4.5218 -4.5561 1.9319 60 60 60
4.0381 4.2877 -0.0841 60 60 60
11.9992 10.1784 2.0604 60 60 60
2.4335 -3.9222 1.1715 60 60 60
5.4294 1.7022 0.0053 60 60 60
3.1382 -6.6775 0.2219 60 60 60
5.0789 1.8256 -0.0030 60 60 60
5.4302 6.0262 -0.1348 60 60 60
3.9733 3.8169 -0.0705 60 60 60
3.6675 -4.9463 0.2166 60 60 60
4.9004 -4.9574 2.6783 60 60 60
4.4179 -5.1189 1.9534 60 60 60
5.2540 2.2416 -0.0048 60 60 60
5.9280 -1.0346 0.0065 60 60 60
5.2841 3.1290 -0.0300 60 60 60
4.7635 -3.1878 -0.0388 60 60 60
11.0361 7.0838 -0.0480 60 60 60
4.6354 -4.3260 0.0176 60 60 60
2.5649 -4.0017 1.8551 60 60 60
6.8548 -4.4821 -0.0304 60 60 60
5.0386 4.4567 -0.0785 60 60 60
2.9230 -4.2121 0.2791 60 60 60
2.7069 -0.4453 1.0007 60 60 60
2.9000 -4.1982 1.8462 60 60 60
4.3945 3.2812 -0.0525 60 60 60
6.9293 -6.6248 0.0726 60 60 60
2.8547 -4.0890 -0.0319 60 60 60
8.5672 -7.8370 1.2120 60 60 60
5.9850 -0.2075 0.0206 60 60 60
3.1986 -4.3036 0.6896 60 60 60
8.2276 -6.4585 0.1125 60 60 60
3.0768 -4.2802 0.2312 60 60 60
5.5568 -4.2307 -0.0330 60 60 60
4.4413 -4.7861 1.9412 60 60 60
9.8794 7.9723 1.4525 60 60 60
5.8778 -5.7486 1.4209 60 60 60
5.5620 -2.5392 -0.0372 60 60 60
17.5201 -12.4349 1.0377 60 60 60
9.4776 9.6929 0.2690 60 60 60
5.1724 -1.5453 -0.0126 60 60 60
7.6001 -12.4481 0.1768 60 60 60
3.5393 -4.5333 0.0695 60 60 60
6.1161 -2.2086 -0.0291 60 60 60
8.0454 -7.4762 1.0100 60 60 60
4.0077 -5.9619 0.5785 60 60 60
18.2652 -13.3216 0.4926 60 60 60
22.5806 -14.6719 5.0661 60 60 60
5.8030 1.6163 0.0119 60 60 60
3.4113 -3.7421 -0.0464 60 60 60
4.4329 2.0087 -0.0102 60 60 60
3.0211 -3.0761 -0.0355 60 60 60
24.0018 -13.6009 3.2236 60 60 60
5.3342 -0.0480 0.0255 60 60 60
3.1916 -2.9425 -0.0396 60 60 60
2.7384 -6.1809 0.2107 60 60 60
3.3697 2.8652 -0.0518 60 60 60
4.9752 2.9110 -0.0277 60 60 60
5.9773 0.3821 0.0221 60 60 60
6.7062 -3.6225 -0.0584 60 60 60
2.4555 -3.4500 -0.0336 60 60 60
4.3100 3.3929 -0.0545 60 60 60
22.3953 -15.4675 4.5014 60 60 60
3.4686 -4.0815 -0.0455 60 60 60
4.6639 -4.3088 0.0147 60 60 60
7.9159 -4.2160 -0.0364 60 60 60
2.4391 -3.9410 1.9571 60 60 60
2.9340 -4.2442 0.1452 60 60 60
22.1654 -16.2418 5.1767 60 60 60
5.8409 -2.9209 -0.0406 60 60 60
4.9924 -1.0874 -0.0024 60 60 60
2.3949 -3.4747 -0.0300 60 60 60
3.8567 3.9453 -0.0756 60 60 60
9.4311 -5.0128 0.0433 60 60 60
4.4208 -4.8311 1.5288 60 60 60
22.9410 -13.3022 4.9815 60 60 60
2.6437 -4.0547 1.9556 60 60 60
5.8403 -1.6948 -0.0201 60 60 60
4.5608 -2.3326 -0.0291 60 60 60
5.7986 5.4552 -0.1042 60 60 60
8.1173 7.4674 1.0496 60 60 60
3.7874 3.5456 -0.0645 60 60 60
4.7326 -4.8566 2.6565 60 60 60
3.3664 -3.4093 -0.0412 60 60 60
6.9937 4.7776 -0.0699 60 60 60
11.7231 -7.1548 0.1112 60 60 60
4.4771 -1.8872 -0.0178 60 60 60
3.3399 -4.4783 1.4813 60 60 60
2.7246 0.2829 1.0090 60 60 60
10.8143 9.9863 1.7409 60 60 60
11.5113 -7.6493 0.1095 60 60 60
5.2947 -2.2287 -0.0323 60 60 60
11.8555 10.3855 4.1886 60 60 60
2.3574 -4.0341 0.6425 60 60 60
9.5602 -8.5683 0.8505 60 60 60
2.9241 -4.0510 -0.0335 60 60 60
4.1023 -3.0371 -0.0391 60 60 60
5.2023 -5.0558 -1.9372 60 60 60
9.0973 -5.3422 0.0734 60 60 60
4.8628 -2.3999 -0.0344 60 60 60
5.3213 0.5177 0.0216 60 60 60
9.5821 -10.3759 0.1484 60 60 60
6.2053 -4.3374 -0.0397 60 60 60
3.9048 3.3998 -0.0566 60 60 60
2.7143 0.4198 1.0029 60 60 60
11.2596 -8.2244 0.1057 60 60 60
5.3726 1.8906 0.0027 60 60 60
4.4991 -3.5394 -0.0411 60 60 60
5.2055 1.3670 0.0055 60 60 60
6.8580 5.0758 -0.0806 60 60 60
2.9515 -4.2526 1.7365 60 60 60
3.9576 -4.1329 -0.0499 60 60 60
3.1755 -4.3589 0.0619 60 60 60
4.0259 -3.6163 -0.0541 60 60 60
2.3178 -3.5183 -0.0317 60 60 60
3.6993 -3.0858 -0.0379 60 60 60
6.5646 6.5980 -0.0371 60 60 60
7.7902 -4.3054 -0.0194 60 60 60
5.3848 2.8964 -0.0204 60 60 60
5.2708 1.0075 0.0131 60 60 60
9.1106 9.6285 0.0151 60 60 60
4.1742 -9.8119 0.6979 60 60 60
9.8737 7.7732 0.0659 60 60 60
2.2605 -3.3161 -0.0327 60 60 60
5.1493 2.5089 -0.0120 60 60 60
23.5339 -15.1514 3.2810 60 60 60
8.2434 -5.0289 0.0263 60 60 60
4.5009 -2.9696 -0.0324 60 60 60
4.5393 -2.3793 -0.0312 60 60 60
3.8410 -4.8048 1.4323 60 60 60
5.2270 -1.2599 -0.0006 60 60 60
4.3774 -3.7103 -0.0488 60 60 60
9.7267 -8.5324 0.8385 60 60 60
4.6720 2.0846 -0.0064 60 60 60
4.3566 3.3212 -0.0507 60 60 60
3.7363 -4.7461 1.5710 60 60 60
3.7380 -8.6891 -0.0382 60 60 60
5.2481 1.1090 0.0137 60 60 60
2.9441 -4.4443 0.4559 60 60 60
4.4110 -4.8005 1.9423 60 60 60
4.1166 -4.2422 0.0192 60 60 60
6.2880 -3.1454 -0.0493 60 60 60
6.4188 -2.8064 -0.0417 60 60 60
2.3605 -4.0131 0.9616 60 60 60
5.0791 5.3655 -0.1144 60 60 60
5.9125 2.6487 -0.0051 60 60 60
5.8925 1.0860 0.0228 60 60 60
5.6948 4.3865 -0.0662 60 60 60
5.2340 1.2131 0.0099 60 60 60
4.1068 3.6681 -0.0668 60 60 60
6.3094 -5.0927 -0.0020 60 60 60
3.9409 -4.7098 0.0800 60 60 60
7.2575 -4.9638 0.0144 60 60 60
5.0665 -0.3828 0.0167 60 60 60
18.2956 11.3907 0.1036 60 60 60
5.9270 -12.0540 0.0486 60 60 60
5.7950 -5.7871 1.4252 60 60 60
3.3028 -5.1439 0.9212 60 60 60
2.2563 -3.7984 0.0823 60 60 60
4.0804 3.1656 -0.0457 60 60 60
4.6382 4.9782 -0.0998 60 60 60
5.6060 -4.1760 -0.0351 60 60 60
5.7737 1.7646 0.0071 60 60 60
4.4852 -2.9915 -0.0324 60 60 60
4.0380 -4.2936 0.0245 60 60 60
4.5741 -2.3115 -0.0297 60 60 60
5.6151 -5.8602 0.9085 60 60 60
7.3571 -4.8628 0.0068 60 60 60
5.0420 -0.6735 0.0119 60 60 60
3.9352 -4.1541 -0.0502 60 60 60
6.1855 -3.4245 -0.0612 60 60 60
6.9066 -3.1453 -0.0511 60 60 60
17.9260 -10.5662 1.0245 60 60 60
5.6388 -0.2452 0.0212 60 60 60
4.8703 3.1231 -0.0370 60 60 60
7.3663 -3.7807 -0.0599 60 60 60
22.8065 -13.7331 5.6190 60 60 60
5.8710 -5.7356 1.5969 60 60 60
2.6502 -3.3474 -0.0389 60 60 60
8.6360 7.4500 -0.0012 60 60 60
14.6716 10.3372 0.0335 60 60 60
4.4509 -1.9544 -0.0206 60 60 60
6.4640 -11.7721 0.0292 60 60 60
8.1069 7.5101 1.5332 60 60 60
5.8624 -5.7188 1.7720 60 60 60
3.7058 -4.4570 0.0555 60 60 60
4.0682 -5.0896 0.4085 60 60 60
6.5208 5.7668 -0.1112 60 60 60
4.7263 3.3866 -0.0494 60 60 60
13.5721 -7.4603 0.2073 60 60 60
3.2597 -3.8437 -0.0412 60 60 60
5.4135 -1.8143 -0.0148 60 60 60
7.8476 -6.9598 0.1191 60 60 60
5.6750 4.4192 -0.0673 60 60 60
3.1293 -4.3536 1.9543 60 60 60
10.2134 9.0694 -0.0783 60 60 60
3.8774 -2.8886 -0.0378 60 60 60
7.8436 -8.5948 -0.0575 60 60 60
18.3044 11.5403 0.0994 60 60 60
14.6858 10.5947 0.0219 60 60 60
9.6765 -8.7470 2.2733 60 60 60
5.4827 -3.6136 -0.0542 60 60 60
5.7171 4.3562 -0.0663 60 60 60
3.9883 3.7904 -0.0671 60 60 60
5.1943 2.3695 -0.0043 60 60 60
4.7582 -1.9254 -0.0254 60 60 60
5.2494 -1.1302 0.0036 60 60 60
5.3072 -2.1705 -0.0276 60 60 60
7.4056 -6.0064 0.0696 60 60 60
5.2491 1.0826 0.0157 60 60 60
4.0170 -9.7574 2.1473 60 60 60
2.6342 -3.6213 -0.0385 60 60 60
5.7579 1.7915 0.0097 60 60 60
4.4094 -4.7921 0.6936 60 60 60
5.4005 -1.8706 -0.0175 60 60 60
2.9528 -3.4277 -0.0437 60 60 60
4.6600 2.1062 -0.0058 60 60 60
2.8631 -2.9528 -0.0397 60 60 60
4.3400 -4.9325 0.3926 60 60 60
11.5613 10.1211 2.0638 60 60 60
6.7504 -3.5097 -0.0551 60 60 60
4.3438 -4.7562 0.4234 60 60 60
22.3180 -15.5824 5.7562 60 60 60
10.0281 7.9526 0.8822 60 60 60
4.0385 -3.1185 -0.0408 60 60 60
10.6027 7.7468 -0.0318 60 60 60
9.5237 -8.7310 0.8475 60 60 60
4.7057 -2.6836 -0.0369 60 60 60
15.3169 -9.5381 0.3425 60 60 60
5.3559 -2.9570 -0.0414 60 60 60
2.7151 -3.8505 -0.0332 60 60 60
5.4236 -4.3035 -0.0144 60 60 60
7.4197 -4.7918 0.0026 60 60 60
4.8575 3.1513 -0.0389 60 60 60
7.1859 7.2085 0.0032 60 60 60
5.2748 0.9292 0.0175 60 60 60
3.0268 -4.3218 -0.0237 60 60 60
5.0537 -0.4548 0.0193 60 60 60
8.0564 7.3895 2.4881 60 60 60
5.6184 -0.4650 0.0227 60 60 60
5.0324 -0.7707 0.0091 60 60 60
3.0978 -4.2979 0.5870 60 60 60
3.3004 -2.8359 -0.0374 60 60 60
4.4659 -3.5886 -0.0435 60 60 60
4.6948 4.1373 -0.0712 60 60 60
11.5593 10.0651 1.0413 60 60 60
3.5224 -4.2748 0.0128 60 60 60
5.6059 -2.4243 -0.0341 60 60 60
3.1730 -4.3848 1.8397 60 60 60
5.7409 -2.0145 -0.0230 60 60 60
4.9578 1.1881 0.0097 60 60 60
8.3090 -4.9496 0.0219 60 60 60
2.3562 -4.0081 1.0659 60 60 60
2.4018 -4.0402 0.3051 60 60 60
4.7904 -1.8299 -0.0215 60 60 60
9.6733 9.7085 -0.0613 60 60 60
10.0572 7.7531 0.0425 60 60 60
3.8596 -3.7653 -0.0503 60 60 60
9.7729 6.0536 -0.0583 60 60 60
7.2963 6.8415 0.0298 60 60 60
3.4953 -4.9061 0.1161 60 60 60
4.7584 3.3354 -0.0478 60 60 60
4.7946 -2.5157 -0.0330 60 60 60
5.2448 -1.1834 0.0002 60 60 60
2.7368 0.2636 1.0045 60 60 60
6.3671 6.6718 -0.0144 60 60 60
4.3210 -5.2865 0.4845 60 60 60
4.4343 -4.7190 0.1220 60 60 60
4.5521 2.3641 -0.0161 60 60 60
11.2666 10.0183 1.0604 60 60 60
3.5097 -4.5619 1.0983 60 60 60
5.9751 5.1508 -0.0892 60 60 60
4.7482 4.0510 -0.0656 60 60 60
5.0187 -2.7648 -0.0327 60 60 60
4.1485 -2.9414 -0.0286 60 60 60
4.7184 -3.9375 -0.0584 60 60 60
8.2994 -7.6596 0.7352 60 60 60
5.5953 -5.5779 0.0591 60 60 60
6.0542 2.2097 0.0047 60 60 60
9.9114 9.8382 1.7653 60 60 60
4.5949 -2.2645 -0.0276 60 60 60
7.1567 -7.2953 -0.0480 60 60 60
4.3595 -4.1507 -0.0168 60 60 60
2.7165 -4.1139 1.7477 60 60 60
7.4027 -3.7021 -0.0597 60 60 60
4.0091 -4.1014 -0.0541 60 60 60
10.2413 8.9953 -0.0761 60 60 60
5.0102 -0.9151 0.0068 60 60 60
5.3042 -3.0335 -0.0392 60 60 60
3.4267 -3.3672 -0.0446 60 60 60
17.8660 -11.2166 1.4963 60 60 60
4.5472 -2.3536 -0.0285 60 60 60
2.6932 -0.5405 0.9956 60 60 60
7.7280 -8.6568 -0.0490 60 60 60
8.0709 7.3346 2.2470 60 60 60
3.0416 -2.8129 -0.0421 60 60 60
7.9817 -7.4806 1.4940 60 60 60
5.1301 -2.5629 -0.0321 60 60 60
5.5985 -0.7118 0.0191 60 60 60
4.7572 1.8762 -0.0030 60 60 60
6.1622 6.3586 -0.1357 60 60 60
7.4888 -12.7670 0.1594 60 60 60
4.1999 -4.1995 0.0101 60 60 60
4.5134 3.0899 -0.0442 60 60 60
18.0956 -9.8660 0.5589 60 60 60
7.7920 5.0208 -0.0667 60 60 60
5.6101 -0.5738 0.0215 60 60 60
7.5088 -7.1266 1.9675 60 60 60
3.2214 -4.4187 1.8385 60 60 60
4.7789 3.2767 -0.0413 60 60 60
4.4903 -3.5721 -0.0465 60 60 60
2.3555 -3.9920 0.2165 60 60 60
4.5394 5.0886 -0.1037 60 60 60
5.9390 3.9088 -0.0470 60 60 60
2.8284 -2.9755 -0.0381 60 60 60
9.8349 9.7973 1.1529 60 60 60
12.0285 10.2373 3.4700 60 60 60
5.2622 -1.0801 0.0031 60 60 60
4.6544 4.1891 -0.0728 60 60 60
5.8665 1.2936 0.0175 60 60 60
4.1944 -5.3680 0.3369 60 60 60
2.4656 -3.9490 1.0639 60 60 60
2.5554 -3.4032 -0.0381 60 60 60
2.7762 -3.0087 -0.0358 60 60 60
6.2849 3.0466 -0.0154 60 60 60
5.9734 -0.4424 0.0193 60 60 60
4.4389 3.2084 -0.0486 60 60 60
5.2125 -1.3643 -0.0064 60 60 60
2.7135 -4.2077 0.1979 60 60 60
3.4404 -4.5997 0.2051 60 60 60
2.7043 0.4063 1.0087 60 60 60
4.4590 -4.9071 0.9593 60 60 60
5.1741 1.4961 0.0033 60 60 60
12.7311 -9.5089 0.2067 60 60 60
8.3419 -9.4320 0.0675 60 60 60
5.6378 -2.3360 -0.0317 60 60 60
4.0556 -9.8316 0.7050 60 60 60
5.3371 -4.3708 -0.0065 60 60 60
3.1938 -3.5472 -0.0405 60 60 60
2.3885 -4.0258 1.0598 60 60 60
5.1998 5.2019 -0.1068 60 60 60
4.5552 -4.8456 1.3790 60 60 60
8.7190 7.1044 0.0187 60 60 60
6.5756 -5.7327 0.0433 60 60 60
4.5246 -4.6589 2.2076 60 60 60
3.7347 -3.0534 -0.0394 60 60 60
4.5560 -4.8697 0.8069 60 60 60
3.3647 -4.4985 1.9540 60 60 60
5.3398 -0.0226 0.0232 60 60 60
4.2431 4.0521 -0.0738 60 60 60
8.7940 5.3246 -0.0700 60 60 60
2.9807 -4.3871 0.4640 60 60 60
4.8160 2.4691 -0.0142 60 60 60
12.8856 10.1790 1.3200 60 60 60
3.6329 -3.1568 -0.0389 60 60 60
6.0897 6.8827 0.0002 60 60 60
8.0917 -8.1955 -0.0472 60 60 60
5.3471 -0.1257 0.0192 60 60 60
3.7173 -4.6939 1.9530 60 60 60
4.5605 -4.7107 2.0739 60 60 60
6.0837 -6.1626 0.0674 60 60 60
2.8739 -4.2523 0.0308 60 60 60
6.1616 3.3492 -0.0220 60 60 60
22.4759 -15.1538 4.4822 60 60 60
3.9777 -3.2039 -0.0455 60 60 60
2.7608 -3.8307 -0.0360 60 60 60
9.6205 -6.9162 0.1200 60 60 60
2.9690 -4.2400 1.5169 60 60 60
11.7449 10.1557 2.4066 60 60 60
5.9698 2.4940 -0.0027 60 60 60
5.2507 -2.3016 -0.0286 60 60 60
3.4172 -3.0472 -0.0445 60 60 60
4.9335 -4.9390 2.6778 60 60 60
9.3292 9.7491 1.7815 60 60 60
4.5797 -4.7671 1.2406 60 60 60
8.2497 8.5265 -0.0531 60 60 60
5.9003 -2.7637 -0.0351 60 60 60
11.8832 -6.8096 0.1097 60 60 60
8.4750 -7.8316 1.2179 60 60 60
2.9437 -4.3129 0.3680 60 60 60
4.4052 3.8693 -0.0709 60 60 60
5.1204 1.6727 0.0022 60 60 60
2.6765 0.5846 1.0013 60 60 60
2.6945 0.5348 0.9995 60 60 60
5.9359 -1.0052 0.0056 60 60 60
4.3963 -2.0858 -0.0262 60 60 60
6.0234 3.6964 -0.0359 60 60 60
5.6597 -2.3129 -0.0357 60 60 60
5.4719 -5.8607 1.6150 60 60 60
10.6771 9.9610 1.7445 60 60 60
3.6662 -4.6526 1.0724 60 60 60
22.7237 -14.0305 5.6390 60 60 60
12.3904 -10.2696 0.2038 60 60 60
9.8994 5.7653 -0.0575 60 60 60
5.3417 0.0030 0.0225 60 60 60
5.2886 -5.0288 0.0431 60 60 60
12.3450 10.1367 2.0549 60 60 60
8.5824 -7.8587 0.9537 60 60 60
8.4101 -6.2426 0.1050 60 60 60
4.4080 4.5090 -0.0879 60 60 60
9.2454 7.3797 0.4419 60 60 60
7.2489 7.1111 0.0052 60 60 60
2.7122 0.3336 1.0112 60 60 60
4.4855 -5.1553 1.9534 60 60 60
2.8673 -3.1975 -0.0373 60 60 60
4.5767 -4.6800 0.1008 60 60 60
4.4410 -4.7211 0.2679 60 60 60
3.0484 -3.3622 -0.0455 60 60 60
2.8094 -2.9835 -0.0355 60 60 60
4.9656 -4.9746 2.8362 60 60 60
5.9900 -2.5868 -0.0377 60 60 60
4.4483 1.9629 -0.0072 60 60 60
11.5041 10.1398 2.7450 60 60 60
5.5146 -1.3738 -0.0008 60 60 60
2.6278 -6.2025 0.2181 60 60 60
10.2516 7.9324 2.8584 60 60 60
11.6926 -1.4291 0.0695 255 200 100
24.4202 -7.6118 4.7597 255 200 100
6.3216 -1.1496 0.0004 255 200 100
7.1788 -2.1201 -0.0236 255 200 100
14.9579 -2.4547 0.1889 255 200 100
15.4430 2.2188 0.1496 255 200 100
8.5728 -1.5928 0.0078 255 200 100
24.9722 -9.8410 3.1145 255 200 100
6.7302 1.2994 0.0150 255 200 100
7.2624 1.1864 0.0202 255 200 100
9.9396 -4.8303 -0.0298 255 200 100
26.3630 -4.3430 3.6538 255 200 100
13.1685 -1.5578 0.1184 255 200 100
6.4998 -2.5275 -0.0319 255 200 100
11.7502 3.9500 0.0057 255 200 100
9.4299 1.5165 0.0309 255 200 100
21.5493 2.3952 0.8957 255 200 100
7.3014 0.1771 0.0316 255 200 100
7.0009 2.5282 0.0050 255 200 100
15.3245 6.8083 0.0818 255 200 100
25.5243 -3.3399 4.7412 255 200 100
15.8175 -2.7034 1.8487 255 200 100
18.5110 10.8126 0.0978 255 200 100
7.8972 -0.1729 0.0325 255 200 100
6.3582 0.2509 0.0261 255 200 100
13.5210 2.3069 0.0704 255 200 100
24.8825 -5.9677 4.1632 255 200 100
11.7956 0.0165 0.0682 255 200 100
15.4905 3.2772 0.1335 255 200 100
7.2347 1.4869 0.0141 255 200 100
22.2008 5.1633 0.3654 255 200 100
7.2095 -2.0085 -0.0233 255 200 100
6.7376 1.2659 0.0146 255 200 100
25.5008 -7.6488 3.6763 255 200 100
19.6424 -8.9553 0.4680 255 200 100
23.2684 -11.9594 5.5095 255 200 100
10.4569 -1.1498 0.0459 255 200 100
7.2911 0.6254 0.0292 255 200 100
6.9543 -2.9921 -0.0463 255 200 100
16.0315 -1.2310 1.4911 255 200 100
16.7095 -5.2042 0.3213 255 200 100
21.8272 6.8996 0.3851 255 200 100
10.3390 -2.7355 0.0179 255 200 100
6.4200 2.5565 0.0042 255 200 100
10.3401 -2.6166 0.0226 255 200 100
10.4871 1.5885 0.0399 255 200 100
9.4272 1.6190 0.0288 255 200 100
26.2272 -4.7669 3.0491 255 200 100
6.5124 -2.4945 -0.0319 255 200 100
11.1429 -4.8084 0.0342 255 200 100
7.4163 3.6817 -0.0374 255 200 100
19.7814 -8.4902 0.4646 255 200 100
23.4231 -11.3843 5.4797 255 200 100
9.3330 -3.2033 -0.0384 255 200 100
21.5705 5.1173 0.9029 255 200 100
8.2529 -3.8046 -0.0686 255 200 100
16.0235 -1.2280 1.1406 255 200 100
15.4517 -0.0713 0.1535 255 200 100
15.8911 -2.0092 1.4939 255 200 100
7.3086 -0.4535 0.0243 255 200 100
15.6440 -3.6517 0.7990 255 200 100
9.4373 1.3160 0.0342 255 200 100
15.8326 -2.5244 0.7948 255 200 100
12.4365 -5.1761 0.1152 255 200 100
6.3314 -0.8587 0.0135 255 200 100
6.3598 0.0290 0.0265 255 200 100
6.7151 1.4394 0.0116 255 200 100
21.5247 5.3468 1.3989 255 200 100
16.2533 -0.3678 1.8447 255 200 100
6.7805 -0.8975 0.0122 255 200 100
9.4130 1.7706 0.0273 255 200 100
9.3965 2.5531 0.0012 255 200 100
15.9038 -2.1903 1.8464 255 200 100
10.4886 0.4081 0.0533 255 200 100
6.3508 -0.6360 0.0166 255 200 100
25.5014 -7.6465 3.0735 255 200 100
19.3723 -9.7621 0.4752 255 200 100
20.8513 2.6742 0.4620 255 200 100
15.7738 -2.8699 0.7963 255 200 100
7.2866 -1.3588 -0.0028 255 200 100
25.0567 -5.1353 4.7328 255 200 100
13.5321 2.6129 0.0643 255 200 100
6.3565 -0.4456 0.0208 255 200 100
24.4961 -7.3355 4.7551 255 200 100
7.9067 0.1909 0.0311 255 200 100
9.4378 -1.5829 0.0177 255 200 100
11.8720 2.9458 0.0189 255 200 100
16.2054 -0.3572 1.1348 255 200 100
8.5990 0.0750 0.0379 255 200 100
15.6846 -3.3873 0.7985 255 200 100
25.2699 -4.3063 4.7335 255 200 100
21.5157 0.5965 0.4135 255 200 100
12.6664 -4.3243 0.1174 255 200 100
10.4944 0.1306 0.0524 255 200 100
11.3935 5.7305 -0.0205 255 200 100
24.7052 -10.3745 2.5198 255 200 100
13.5020 1.9284 0.0777 255 200 100
6.3464 0.2190 0.0304 255 200 100
