ply
format ascii 1.0
element vertex 1461
property float x
property float y
property float z
property uchar red
property uchar green
property uchar blue
end_header
7.3058 0.0298 0.0305 255 200 100
16.1884 -1.3420 2.1986 255 200 100
10.4338 3.5379 -0.0156 255 200 100
9.2581 -3.6846 -0.0552 255 200 100
25.5302 -7.1912 2.4693 255 200 100
21.6494 1.8083 0.4062 255 200 100
23.7442 -4.1546 2.9282 255 200 100
10.4750 2.9971 0.0001 255 200 100
9.2572 3.9616 -0.0505 255 200 100
6.5166 2.2914 0.0035 255 200 100
25.5462 -7.1928 1.8754 255 200 100
8.2045 3.7399 -0.0289 255 200 100
6.2612 1.3612 0.0146 255 200 100
7.3661 3.8036 -0.0384 255 200 100
6.9534 2.7585 -0.0037 255 200 100
7.8986 0.1113 0.0333 255 200 100
25.0591 -9.3863 3.7102 255 200 100
6.6768 -1.9121 -0.0226 255 200 100
19.3723 -9.7621 0.4752 255 200 100
15.9795 -2.4701 2.2003 255 200 100
13.4213 0.1599 0.0974 255 200 100
8.5938 -0.9096 0.0259 255 200 100
24.9766 -9.3531 2.5006 255 200 100
24.3142 -8.0272 4.7685 255 200 100
6.3464 0.4400 0.0272 255 200 100
11.8479 1.0348 0.0570 255 200 100
7.6413 2.6552 0.0004 255 200 100
6.2591 -1.5670 -0.0101 255 200 100
9.3980 -2.7284 -0.0241 255 200 100
11.8522 3.2146 0.0143 255 200 100
15.3546 6.5197 0.0861 255 200 100
23.9606 -9.4211 4.8073 255 200 100
6.3743 2.7701 -0.0067 255 200 100
7.5688 -3.3986 -0.0669 255 200 100
9.9972 -4.6610 -0.0281 255 200 100
16.0993 -1.1388 0.4275 255 200 100
15.8941 -3.0820 2.2044 255 200 100
13.0748 -2.1931 0.1205 255 200 100
8.3212 3.1690 -0.0100 255 200 100
7.8724 0.9653 0.0287 255 200 100
15.4323 1.9588 0.1526 255 200 100
22.8067 1.4900 2.3626 255 200 100
8.2644 -3.7568 -0.0667 255 200 100
6.6897 1.6123 0.0082 255 200 100
11.6262 -1.9956 0.0681 255 200 100
7.8789 -1.0700 0.0173 255 200 100
6.9183 2.8703 -0.0054 255 200 100
10.2679 4.6375 -0.0448 255 200 100
7.2338 1.4483 0.0164 255 200 100
24.2182 -12.1376 3.7848 255 200 100
8.1988 3.8438 -0.0365 255 200 100
9.4767 -0.1787 0.0377 255 200 100
9.4378 -1.5829 0.0177 255 200 100
15.0056 -2.0446 0.1892 255 200 100
6.8126 0.0640 0.0232 255 200 100
11.8733 2.8092 0.0224 255 200 100
21.4179 2.0116 1.3778 255 200 100
24.2984 -8.0185 5.3529 255 200 100
9.3306 3.4136 -0.0302 255 200 100
26.2111 -4.9141 3.0505 255 200 100
6.7651 1.0255 0.0176 255 200 100
8.2028 3.7940 -0.0331 255 200 100
7.8872 -0.7010 0.0264 255 200 100
25.6997 -6.7793 3.0619 255 200 100
15.9874 -1.6623 0.7894 255 200 100
15.7153 -3.0415 1.4990 255 200 100
12.9749 -2.6876 0.1236 255 200 100
12.6242 -4.5424 0.1151 255 200 100
11.7680 3.7453 0.0103 255 200 100
15.4730 -4.6086 0.8018 255 200 100
25.7733 -6.4898 3.0590 255 200 100
24.9638 -9.8326 3.7223 255 200 100
6.3711 0.0616 0.0227 255 200 100
6.6508 -1.9771 -0.0205 255 200 100
15.1413 -1.1442 0.1832 255 200 100
26.0261 -3.1168 4.7953 255 200 100
13.9523 -6.3183 0.2075 255 200 100
7.8724 1.0061 0.0276 255 200 100
10.5023 1.0232 0.0461 255 200 100
27.7267 1.2374 0.6064 255 200 100
9.4220 -2.1486 -0.0008 255 200 100
25.6163 -7.2193 3.0682 255 200 100
10.1767 -3.9644 -0.0154 255 200 100
21.5899 1.0824 0.4093 255 200 100
26.3422 -4.1899 3.6499 255 200 100
6.9637 2.6793 0.0012 255 200 100
13.4712 4.6549 0.0258 255 200 100
6.4376 -2.7348 -0.0383 255 200 100
21.5676 2.7508 1.3785 255 200 100
6.7370 -1.4905 -0.0079 255 200 100
15.9154 -1.8334 1.1438 255 200 100
15.4815 0.0123 0.1503 255 200 100
7.8183 -2.0733 -0.0179 255 200 100
15.4930 5.0169 0.1051 255 200 100
28.6952 -2.6456 5.7601 255 200 100
7.7761 1.9099 0.0152 255 200 100
23.0101 9.7951 0.2891 255 200 100
21.8272 6.8996 0.3851 255 200 100
9.4238 -2.0433 0.0034 255 200 100
12.1252 -6.0898 0.1150 255 200 100
29.3312 -2.5429 5.8478 255 200 100
23.7566 -10.2655 4.2517 255 200 100
11.8496 1.6804 0.0493 255 200 100
11.5776 -3.0303 0.0450 255 200 100
7.2056 1.6752 0.0119 255 200 100
8.5145 -2.3346 -0.0162 255 200 100
24.6266 -6.9305 4.1730 255 200 100
9.4722 -0.3775 0.0370 255 200 100
18.3419 5.6493 0.1993 255 200 100
25.2521 -4.3088 5.3176 255 200 100
12.3137 -5.6046 0.1129 255 200 100
8.5370 -1.8654 0.0038 255 200 100
7.7749 -2.4591 -0.0341 255 200 100
11.7720 -0.6133 0.0681 255 200 100
6.7805 -0.8975 0.0122 255 200 100
17.7553 0.6918 0.2801 255 200 100
6.3580 -0.0023 0.0270 255 200 100
7.2923 -1.1296 0.0068 255 200 100
25.2940 -4.1731 5.3194 255 200 100
10.3523 4.0802 -0.0281 255 200 100
17.5015 -1.4367 0.2951 255 200 100
7.2675 0.9591 0.0272 255 200 100
10.2845 -3.0782 0.0124 255 200 100
17.1494 -3.4280 0.3080 255 200 100
9.4215 1.6688 0.0285 255 200 100
16.0235 -1.2280 1.1406 255 200 100
15.9901 -4.1109 0.7711 255 200 100
6.3126 0.9798 0.0199 255 200 100
24.6896 -10.5360 1.9213 255 200 100
9.4700 -0.5272 0.0356 255 200 100
14.9701 -2.3734 0.1887 255 200 100
11.6362 -1.9298 0.0681 255 200 100
13.0094 -2.5473 0.1221 255 200 100
12.7771 -3.6770 0.1239 255 200 100
26.2272 -4.7669 3.0491 255 200 100
16.1188 -0.7976 1.4897 255 200 100
6.8954 2.9446 -0.0069 255 200 100
17.0317 -3.8935 0.3126 255 200 100
8.2348 3.6495 -0.0279 255 200 100
9.4684 0.7659 0.0370 255 200 100
24.7962 -10.4138 3.1267 255 200 100
6.4968 2.3588 0.0026 255 200 100
21.6085 5.7508 1.4006 255 200 100
24.2460 -12.1626 2.5609 255 200 100
15.6896 -3.1246 1.4997 255 200 100
11.5301 -3.1514 0.0482 255 200 100
24.7516 -10.2326 2.5171 255 200 100
18.3520 5.9907 0.1944 255 200 100
9.4828 0.3180 0.0372 255 200 100
12.9688 6.8593 0.0110 255 200 100
15.2019 -0.8160 0.1787 255 200 100
13.0907 -2.1259 0.1196 255 200 100
8.5310 1.9722 0.0123 255 200 100
17.1963 -3.2396 0.3061 255 200 100
17.2108 -3.1451 0.3059 255 200 100
16.6387 -5.4867 0.3226 255 200 100
21.6519 5.5225 0.9003 255 200 100
15.3930 6.2352 0.0891 255 200 100
11.6318 -2.1227 0.0640 255 200 100
25.1693 -8.6317 2.4888 255 200 100
15.4584 2.5679 0.1449 255 200 100
12.2308 -5.8137 0.1143 255 200 100
25.5488 -7.5069 3.0721 255 200 100
18.3921 8.1234 0.1598 255 200 100
16.9428 -4.2676 0.3154 255 200 100
30.8059 -2.3167 5.3405 255 200 100
10.9478 -5.3729 0.0323 255 200 100
6.2933 1.1394 0.0180 255 200 100
6.2728 -1.4698 -0.0066 255 200 100
10.4293 3.6007 -0.0177 255 200 100
21.6797 2.6642 0.4045 255 200 100
24.1151 -8.4064 0.7446 255 200 100
10.4766 2.2786 0.0246 255 200 100
11.7855 -0.0462 0.0696 255 200 100
15.9341 -2.0192 1.8458 255 200 100
17.4949 -1.5323 0.2950 255 200 100
10.3593 4.0187 -0.0261 255 200 100
25.9346 -5.9188 3.0549 255 200 100
13.4857 4.3311 0.0331 255 200 100
10.2335 -3.7349 -0.0123 255 200 100
23.1127 -12.7168 4.3508 255 200 100
15.4972 4.6372 0.1119 255 200 100
8.5319 1.6462 0.0253 255 200 100
15.4665 5.4842 0.0984 255 200 100
13.0219 -2.4773 0.1219 255 200 100
15.8085 -3.5139 2.2078 255 200 100
11.7956 0.0165 0.0682 255 200 100
8.5095 -2.0940 -0.0015 255 200 100
10.4642 1.8705 0.0379 255 200 100
19.9127 -8.0249 0.4614 255 200 100
23.1112 -12.5401 5.5421 255 200 100
11.7301 -2.6715 0.0325 255 200 100
6.7339 1.3355 0.0119 255 200 100
25.4228 -7.7762 3.0734 255 200 100
14.9989 -2.2093 0.1877 255 200 100
14.0098 -6.1610 0.2064 255 200 100
7.1588 -2.2358 -0.0277 255 200 100
10.2726 -3.1942 0.0090 255 200 100
6.2646 -1.5342 -0.0091 255 200 100
9.1804 4.3441 -0.0626 255 200 100
15.7254 -3.1289 0.7977 255 200 100
13.4122 5.0496 0.0215 255 200 100
9.2061 -3.9529 -0.0644 255 200 100
18.1388 3.8638 0.2346 255 200 100
6.3633 -0.3829 0.0201 255 200 100
6.7969 -0.6220 0.0173 255 200 100
28.1018 -2.7502 5.6786 255 200 100
8.4588 -2.8572 -0.0374 255 200 100
11.8585 1.4207 0.0514 255 200 100
9.9602 -4.7747 -0.0295 255 200 100
20.7458 1.8374 0.9312 255 200 100
15.6440 -3.6517 0.7990 255 200 100
6.7938 0.2684 0.0282 255 200 100
13.3977 -0.1301 0.0998 255 200 100
11.6285 -2.0579 0.0662 255 200 100
22.2008 5.1633 0.3654 255 200 100
25.9398 -5.9245 3.6572 255 200 100
13.0551 -2.2663 0.1217 255 200 100
25.5014 -7.6465 3.0735 255 200 100
20.8376 2.7891 0.4629 255 200 100
24.8620 -9.7955 2.5086 255 200 100
7.0725 -2.5754 -0.0349 255 200 100
11.1241 -4.8714 0.0338 255 200 100
15.4902 4.8261 0.1091 255 200 100
14.8289 -3.1033 0.1929 255 200 100
11.4587 5.5293 -0.0197 255 200 100
7.2612 -1.5872 -0.0088 255 200 100
13.3788 -0.2017 0.1022 255 200 100
22.4536 4.2890 0.8595 255 200 100
15.4332 5.8599 0.0936 255 200 100
15.9116 -2.9963 2.2038 255 200 100
7.3019 -0.0070 0.0315 255 200 100
25.0042 -9.6885 3.1108 255 200 100
8.1886 3.8923 -0.0384 255 200 100
16.1271 -0.7107 1.4896 255 200 100
9.4462 -1.6848 0.0125 255 200 100
18.3437 8.9836 0.1490 255 200 100
25.5879 -7.0501 2.4682 255 200 100
14.1587 -5.5883 0.2081 255 200 100
25.2621 -8.3496 1.8888 255 200 100
17.0084 -3.9889 0.3134 255 200 100
23.9613 -13.4079 1.9772 255 200 100
6.3429 0.5986 0.0246 255 200 100
24.9298 -5.5438 5.3162 255 200 100
7.8544 -1.3562 0.0122 255 200 100
11.8495 3.1454 0.0168 255 200 100
12.1115 -6.1687 0.1130 255 200 100
11.5210 5.2539 -0.0153 255 200 100
19.6520 -8.8279 0.4690 255 200 100
13.9281 -6.3994 0.2074 255 200 100
11.0198 -5.1888 0.0321 255 200 100
7.8782 1.0481 0.0250 255 200 100
13.5247 2.6872 0.0641 255 200 100
16.4754 -0.6314 0.7604 255 200 100
23.9285 -9.4031 5.3929 255 200 100
25.2463 -8.9807 3.0990 255 200 100
7.5230 3.2498 -0.0207 255 200 100
13.4501 0.7429 0.0931 255 200 100
16.6580 -5.3888 0.3227 255 200 100
16.3493 -0.3485 0.4084 255 200 100
7.3008 -0.8646 0.0151 255 200 100
8.4197 -3.1449 -0.0498 255 200 100
6.3226 -1.0199 0.0079 255 200 100
26.3593 -4.4922 3.6561 255 200 100
6.2892 -1.3406 -0.0020 255 200 100
17.6628 -0.4776 0.2856 255 200 100
15.4135 1.5303 0.1571 255 200 100
10.1795 5.0021 -0.0521 255 200 100
6.3508 -0.6360 0.0166 255 200 100
22.7739 8.6498 0.3119 255 200 100
17.3728 -2.3912 0.2990 255 200 100
6.3286 -0.9555 0.0095 255 200 100
11.8005 0.1437 0.0676 255 200 100
15.1946 -0.9007 0.1789 255 200 100
24.0762 -8.5478 0.7459 255 200 100
11.5009 -3.2072 0.0508 255 200 100
9.0413 4.7025 -0.0636 255 200 100
8.1281 4.0799 -0.0421 255 200 100
9.2854 -3.4664 -0.0458 255 200 100
6.7660 -1.1750 0.0029 255 200 100
6.2109 1.5805 0.0148 255 200 100
15.5469 4.1022 0.1154 255 200 100
6.9386 2.8362 -0.0074 255 200 100
12.6183 -4.6177 0.1131 255 200 100
24.3492 -11.8789 1.9456 255 200 100
25.4456 -7.6289 1.8802 255 200 100
24.9373 -9.4967 2.5031 255 200 100
27.4016 0.4554 0.6191 255 200 100
18.3379 6.0982 0.1943 255 200 100
15.7001 -3.3015 0.7981 255 200 100
7.6106 2.7778 -0.0016 255 200 100
16.2373 -1.0816 2.1991 255 200 100
15.6048 -3.6441 1.5029 255 200 100
9.4239 -2.4136 -0.0133 255 200 100
6.3602 -0.1289 0.0254 255 200 100
13.4339 0.2321 0.0957 255 200 100
18.2953 5.0830 0.2096 255 200 100
7.7507 -2.5862 -0.0379 255 200 100
6.6966 -1.8070 -0.0196 255 200 100
16.0426 -2.1236 2.1991 255 200 100
15.4896 3.1890 0.1347 255 200 100
15.4261 1.7880 0.1544 255 200 100
10.2189 4.8857 -0.0515 255 200 100
19.8519 -8.2573 0.4627 255 200 100
6.2404 1.4554 0.0148 255 200 100
15.5911 -3.7303 1.5034 255 200 100
15.0981 8.1722 0.0661 255 200 100
9.4372 1.2642 0.0354 255 200 100
15.4539 -4.7911 1.1563 255 200 100
9.2636 -3.6279 -0.0524 255 200 100
17.4189 -2.2043 0.2965 255 200 100
7.2276 1.5261 0.0141 255 200 100
16.2141 -0.5448 1.8444 255 200 100
22.3130 5.8472 0.3557 255 200 100
6.7360 -1.5621 -0.0126 255 200 100
6.3314 -0.8587 0.0135 255 200 100
24.1000 -8.8567 4.7896 255 200 100
18.4331 -9.0052 1.0057 255 200 100
10.4960 0.9684 0.0479 255 200 100
7.3073 -0.4164 0.0254 255 200 100
24.3310 -7.8808 5.3492 255 200 100
7.4402 3.5949 -0.0341 255 200 100
10.3759 -2.3333 0.0271 255 200 100
8.5929 -1.5035 0.0068 255 200 100
6.7556 -1.2442 0.0022 255 200 100
25.4962 -7.3344 2.4710 255 200 100
24.7671 -10.5640 3.1307 255 200 100
25.9882 -5.7800 3.6571 255 200 100
24.5321 -11.2943 1.3235 255 200 100
18.3231 9.8847 0.1334 255 200 100
9.0002 4.8040 -0.0639 255 200 100
10.1143 -4.1932 -0.0182 255 200 100
16.9573 -4.1729 0.3154 255 200 100
24.9752 -5.5502 4.1591 255 200 100
7.8342 -1.8622 -0.0088 255 200 100
10.3087 -2.9053 0.0160 255 200 100
24.2803 -8.1604 4.7717 255 200 100
15.4080 1.2770 0.1587 255 200 100
21.9584 7.2167 0.3747 255 200 100
23.6378 -9.9139 0.7621 255 200 100
25.7383 -6.6373 3.0606 255 200 100
6.3315 0.7252 0.0244 255 200 100
16.3757 -6.4208 0.3279 255 200 100
14.2697 -5.1821 0.2077 255 200 100
16.2429 -0.4580 1.8445 255 200 100
6.7988 -0.3117 0.0242 255 200 100
21.5705 5.1173 0.9029 255 200 100
6.7642 1.0951 0.0149 255 200 100
14.2057 -5.4286 0.2076 255 200 100
9.4323 1.5692 0.0290 255 200 100
13.3028 -0.7048 0.1096 255 200 100
9.4328 1.2135 0.0374 255 200 100
7.1805 -2.1624 -0.0276 255 200 100
6.7539 -1.3144 -0.0015 255 200 100
16.0067 -1.6754 1.8448 255 200 100
27.7351 1.3924 0.6064 255 200 100
28.3687 -2.7603 4.4158 255 200 100
6.3137 0.8838 0.0240 255 200 100
9.4637 -0.8274 0.0321 255 200 100
16.6904 -5.2989 0.3213 255 200 100
6.7895 -0.7941 0.0136 255 200 100
21.4765 5.2046 1.3988 255 200 100
23.5857 -10.8212 4.8578 255 200 100
8.6042 -1.1392 0.0170 255 200 100
10.4586 3.2988 -0.0094 255 200 100
11.7270 -1.1789 0.0682 255 200 100
18.3616 6.5647 0.1861 255 200 100
15.4920 5.1107 0.1033 255 200 100
6.7094 1.5092 0.0090 255 200 100
6.7151 1.4394 0.0116 255 200 100
12.9884 6.7759 0.0121 255 200 100
15.5477 -3.9890 1.1543 255 200 100
10.4975 1.2483 0.0439 255 200 100
15.5298 -4.7191 1.5083 255 200 100
24.7921 -6.0974 5.3206 255 200 100
17.2606 -2.8631 0.3045 255 200 100
6.3447 0.5039 0.0264 255 200 100
7.1388 1.9688 0.0117 255 200 100
10.4671 -0.7031 0.0515 255 200 100
24.8137 -10.4157 3.7380 255 200 100
22.7871 1.1179 1.8526 255 200 100
24.6032 -11.1510 3.7588 255 200 100
22.4175 6.4112 0.3466 255 200 100
13.5316 2.8410 0.0605 255 200 100
10.4299 -1.5977 0.0405 255 200 100
6.3576 -0.1602 0.0260 255 200 100
10.4569 -1.1498 0.0459 255 200 100
7.6485 -3.1473 -0.0615 255 200 100
13.3185 5.5202 0.0181 255 200 100
10.4941 1.3040 0.0437 255 200 100
13.3635 -0.2732 0.1040 255 200 100
15.3446 -0.4057 0.1646 255 200 100
7.7565 -2.5433 -0.0360 255 200 100
6.6063 1.9879 0.0046 255 200 100
23.6051 -10.6701 5.4448 255 200 100
15.0672 -1.7193 0.1860 255 200 100
10.4659 -0.9821 0.0474 255 200 100
6.3226 0.7885 0.0250 255 200 100
11.5879 4.9071 -0.0090 255 200 100
10.4999 0.7984 0.0489 255 200 100
6.5068 2.3251 0.0031 255 200 100
9.0927 -4.3142 -0.0703 255 200 100
6.4806 -2.6372 -0.0390 255 200 100
6.7977 -0.7608 0.0123 255 200 100
11.8709 2.4725 0.0310 255 200 100
15.9515 -2.6453 2.2012 255 200 100
13.4763 0.8898 0.0890 255 200 100
6.2303 1.4857 0.0159 255 200 100
25.3960 -8.0842 3.6838 255 200 100
21.8019 6.4808 0.8963 255 200 100
15.9216 -2.8201 2.2022 255 200 100
15.8108 -2.4376 1.4960 255 200 100
24.8371 -10.1076 1.3081 255 200 100
14.9070 -2.7817 0.1896 255 200 100
10.4872 1.6470 0.0387 255 200 100
6.6351 -2.0844 -0.0257 255 200 100
12.6927 -4.1043 0.1215 255 200 100
7.3086 -0.4535 0.0243 255 200 100
7.0355 -2.6865 -0.0358 255 200 100
11.4770 5.4639 -0.0192 255 200 100
15.9739 -1.4880 1.1421 255 200 100
21.5357 0.7194 0.4124 255 200 100
6.8028 0.4403 0.0233 255 200 100
24.3538 -7.8870 4.7658 255 200 100
7.8802 -0.8643 0.0237 255 200 100
8.3373 3.0751 -0.0070 255 200 100
9.4230 1.7216 0.0267 255 200 100
9.3768 -2.8857 -0.0285 255 200 100
6.7984 -0.7253 0.0134 255 200 100
12.9508 -2.8281 0.1236 255 200 100
9.3934 2.8228 -0.0108 255 200 100
8.5970 -0.0592 0.0379 255 200 100
13.2482 5.9229 0.0127 255 200 100
24.3664 -7.7442 5.3461 255 200 100
24.6538 -6.7871 4.1702 255 200 100
25.0451 -5.1374 5.3166 255 200 100
7.8972 -0.1729 0.0325 255 200 100
9.0184 4.7537 -0.0633 255 200 100
19.7814 -8.4902 0.4646 255 200 100
16.0688 -1.2216 0.4298 255 200 100
15.8792 -2.0951 1.4942 255 200 100
15.8618 -2.0886 1.1455 255 200 100
24.2361 -12.3309 1.9545 255 200 100
11.2519 -4.3553 0.0405 255 200 100
18.2153 4.5201 0.2223 255 200 100
15.7648 -2.9568 0.7963 255 200 100
28.6189 -3.7431 3.1461 255 200 100
18.0655 3.3291 0.2449 255 200 100
21.5067 0.4813 0.4138 255 200 100
6.4329 2.6014 -0.0043 255 200 100
7.2981 -0.4898 0.0265 255 200 100
11.7121 -1.2403 0.0697 255 200 100
24.9161 -9.9737 3.7253 255 200 100
24.4972 -11.4447 1.3255 255 200 100
17.2832 -2.7672 0.3034 255 200 100
10.3654 -2.4466 0.0248 255 200 100
24.5436 -7.0537 5.3325 255 200 100
15.9836 -1.4936 1.4919 255 200 100
15.3832 0.8536 0.1625 255 200 100
16.1116 -1.7771 2.1987 255 200 100
15.7485 -2.7800 1.1487 255 200 100
12.8548 7.3521 0.0034 255 200 100
6.5887 2.0555 0.0041 255 200 100
18.2749 4.8575 0.2137 255 200 100
25.6150 -7.2172 3.6705 255 200 100
24.1340 -12.6222 2.5729 255 200 100
6.1944 1.6087 0.0179 255 200 100
13.2823 5.7622 0.0142 255 200 100
10.3526 -2.5032 0.0249 255 200 100
6.3607 0.1871 0.0258 255 200 100
6.7937 0.1656 0.0290 255 200 100
6.3083 1.0444 0.0181 255 200 100
16.2058 -1.2554 2.1988 255 200 100
22.9376 9.4565 0.2961 255 200 100
15.8328 -8.1093 0.3367 255 200 100
6.7302 1.2994 0.0150 255 200 100
11.7489 -0.8628 0.0691 255 200 100
10.4852 -0.0367 0.0538 255 200 100
16.1578 -0.6980 0.4246 255 200 100
24.7285 -10.5539 1.3136 255 200 100
12.7957 -3.6033 0.1236 255 200 100
6.7929 -0.4826 0.0225 255 200 100
13.5018 3.9325 0.0414 255 200 100
13.1458 -1.6982 0.1194 255 200 100
24.0598 -8.9931 4.7930 255 200 100
25.1111 -4.8595 5.3158 255 200 100
15.1308 -1.3108 0.1829 255 200 100
11.8697 2.8776 0.0211 255 200 100
7.6690 -3.0610 -0.0584 255 200 100
15.1013 -1.3904 0.1856 255 200 100
10.2870 4.5131 -0.0407 255 200 100
9.3803 2.9290 -0.0135 255 200 100
11.6639 -2.4549 0.0497 255 200 100
21.6199 1.3230 0.4076 255 200 100
8.5093 -2.2373 -0.0094 255 200 100
14.9579 -2.4547 0.1889 255 200 100
8.3015 3.2634 -0.0125 255 200 100
23.7973 -9.3630 0.7564 255 200 100
10.2300 -3.6693 -0.0080 255 200 100
8.5094 -2.4792 -0.0238 255 200 100
13.2265 6.0000 0.0127 255 200 100
21.7403 6.3141 1.4028 255 200 100
15.4430 2.2188 0.1496 255 200 100
18.3838 7.0400 0.1775 255 200 100
11.5628 5.0450 -0.0116 255 200 100
9.2699 3.9070 -0.0493 255 200 100
18.3833 8.2457 0.1585 255 200 100
8.5987 -1.3658 0.0106 255 200 100
21.4421 2.1293 1.3779 255 200 100
24.5442 -7.2049 4.1760 255 200 100
14.9799 -2.2894 0.1888 255 200 100
14.1001 -5.8339 0.2070 255 200 100
7.1797 1.7849 0.0125 255 200 100
18.0957 3.5437 0.2408 255 200 100
6.3486 -0.7972 0.0107 255 200 100
25.0223 -5.4162 4.1595 255 200 100
13.8934 -6.4783 0.2085 255 200 100
6.5124 -2.4945 -0.0319 255 200 100
21.6608 3.1314 1.3788 255 200 100
8.5554 -1.8220 0.0016 255 200 100
10.4181 -1.7668 0.0380 255 200 100
15.4425 5.7666 0.0947 255 200 100
13.1917 -1.4151 0.1172 255 200 100
23.8339 -9.2198 0.7551 255 200 100
21.2206 4.3979 1.3982 255 200 100
18.3955 7.3983 0.1711 255 200 100
6.3345 -1.0872 0.0000 255 200 100
15.6753 -3.2101 1.5002 255 200 100
8.3712 -3.3305 -0.0537 255 200 100
25.5525 -3.2076 5.3311 255 200 100
15.5097 3.5529 0.1277 255 200 100
6.2198 1.5499 0.0143 255 200 100
7.9067 0.1909 0.0311 255 200 100
24.6354 -10.6694 2.5261 255 200 100
13.1607 6.2347 0.0122 255 200 100
15.8055 -2.4330 1.1471 255 200 100
17.8293 1.5808 0.2731 255 200 100
12.7194 -3.9593 0.1227 255 200 100
8.5937 0.5209 0.0373 255 200 100
13.2279 -1.0589 0.1166 255 200 100
6.7722 3.3653 -0.0212 255 200 100
10.4600 -1.0371 0.0475 255 200 100
11.4664 -3.3320 0.0516 255 200 100
15.6352 -4.3797 0.7930 255 200 100
18.2571 -9.5558 1.4709 255 200 100
23.5167 -11.1071 4.8705 255 200 100
23.4061 -11.5450 4.8906 255 200 100
13.9740 -6.2363 0.2078 255 200 100
9.4465 1.0653 0.0373 255 200 100
19.3509 -9.8912 0.4749 255 200 100
7.8189 1.5372 0.0225 255 200 100
11.3668 -3.7743 0.0493 255 200 100
16.2789 -0.9053 2.1998 255 200 100
9.4136 -2.2510 -0.0036 255 200 100
10.2537 -3.3085 0.0067 255 200 100
18.1450 -9.6259 1.0172 255 200 100
26.0588 -5.4942 3.6554 255 200 100
8.3812 -3.2835 -0.0522 255 200 100
8.5965 0.1192 0.0385 255 200 100
6.6960 -1.7703 -0.0164 255 200 100
11.1099 -4.9372 0.0323 255 200 100
16.2591 -0.9950 2.1995 255 200 100
7.6598 -3.0102 -0.0516 255 200 100
10.4895 0.1856 0.0534 255 200 100
25.0306 -9.5345 3.7143 255 200 100
24.8865 -9.8055 1.9094 255 200 100
15.3772 0.5144 0.1633 255 200 100
25.4750 -8.1131 3.0843 255 200 100
10.4630 -0.8706 0.0498 255 200 100
14.9194 -2.6979 0.1895 255 200 100
10.4922 1.5327 0.0400 255 200 100
8.6035 -0.6854 0.0287 255 200 100
9.4127 -2.5700 -0.0188 255 200 100
7.6354 -3.1887 -0.0623 255 200 100
8.4943 -2.6693 -0.0326 255 200 100
7.1953 1.7502 0.0103 255 200 100
12.8098 -3.5353 0.1237 255 200 100
7.8786 -1.4039 0.0038 255 200 100
21.4669 2.2548 1.3780 255 200 100
17.6914 0.0072 0.2847 255 200 100
6.7724 -0.8607 0.0162 255 200 100
7.8471 -1.8215 -0.0097 255 200 100
18.1485 -9.8867 1.4766 255 200 100
8.5857 0.2518 0.0409 255 200 100
23.3081 -11.9869 4.3180 255 200 100
8.5000 -2.6236 -0.0309 255 200 100
17.4816 -1.8228 0.2940 255 200 100
15.5323 3.7345 0.1226 255 200 100
6.3341 -0.9242 0.0094 255 200 100
7.8980 -0.2132 0.0319 255 200 100
10.4718 -0.8144 0.0490 255 200 100
23.5253 -10.9494 5.4569 255 200 100
24.0451 -9.1393 4.2173 255 200 100
13.5228 3.3053 0.0528 255 200 100
12.2059 -5.8833 0.1143 255 200 100
15.5736 -4.8292 1.5077 255 200 100
14.4887 -4.3816 0.2042 255 200 100
25.2430 -8.5026 1.2895 255 200 100
17.6458 -0.5735 0.2867 255 200 100
9.4806 0.4168 0.0373 255 200 100
18.0530 3.2244 0.2466 255 200 100
13.5384 2.2328 0.0690 255 200 100
7.8824 0.6816 0.0324 255 200 100
22.1279 1.4608 1.3587 255 200 100
7.6792 2.5345 -0.0001 255 200 100
7.8812 0.8021 0.0303 255 200 100
14.2469 -5.2619 0.2079 255 200 100
18.3338 5.3160 0.2037 255 200 100
17.4876 -1.6307 0.2950 255 200 100
10.5064 1.1933 0.0431 255 200 100
6.5767 2.1265 0.0013 255 200 100
18.3517 9.1113 0.1459 255 200 100
10.4555 3.1104 -0.0009 255 200 100
17.0576 -3.8017 0.3115 255 200 100
7.5792 -3.3045 -0.0600 255 200 100
23.7464 -9.4912 0.7584 255 200 100
11.4213 5.6673 -0.0213 255 200 100
23.3826 -11.6984 4.3057 255 200 100
22.6799 4.8609 0.8508 255 200 100
18.3406 9.3665 0.1420 255 200 100
25.3161 -8.0584 2.4804 255 200 100
21.9094 6.6388 0.8918 255 200 100
21.7065 2.5461 0.4027 255 200 100
24.9163 -9.6525 1.9071 255 200 100
16.0181 -1.5891 1.8447 255 200 100
26.0234 -5.6325 3.0537 255 200 100
6.3030 1.0112 0.0216 255 200 100
21.9175 7.1888 0.8930 255 200 100
7.2777 -1.5122 -0.0089 255 200 100
7.1022 2.1590 0.0080 255 200 100
21.5259 2.0330 0.8957 255 200 100
7.2784 0.8100 0.0285 255 200 100
15.4844 3.1001 0.1363 255 200 100
6.7970 -0.6563 0.0162 255 200 100
7.6610 2.5721 0.0017 255 200 100
13.4956 3.7697 0.0462 255 200 100
9.3988 -2.6746 -0.0214 255 200 100
11.5947 -2.9689 0.0444 255 200 100
25.1522 -4.7242 5.3169 255 200 100
24.0871 -12.7695 2.5767 255 200 100
11.1429 -4.8084 0.0342 255 200 100
11.3502 6.0260 -0.0302 255 200 100
11.5486 -3.0883 0.0476 255 200 100
21.0332 3.0446 0.9215 255 200 100
24.2637 -8.3077 4.1971 255 200 100
30.2859 -2.4406 4.5911 255 200 100
10.0814 -4.3711 -0.0236 255 200 100
7.8903 0.1515 0.0354 255 200 100
17.6973 -0.0893 0.2838 255 200 100
7.2924 0.7745 0.0255 255 200 100
18.1242 -9.7444 1.0178 255 200 100
11.8640 2.1396 0.0391 255 200 100
7.4178 3.6315 -0.0326 255 200 100
21.3355 1.5239 1.3773 255 200 100
7.0713 2.2683 0.0079 255 200 100
10.4943 2.8805 0.0011 255 200 100
9.2216 -3.9017 -0.0636 255 200 100
10.4667 -0.7585 0.0508 255 200 100
16.1087 -0.7943 1.1379 255 200 100
19.9867 -7.6673 0.4607 255 200 100
23.2768 -12.1403 4.3254 255 200 100
7.2872 0.7366 0.0279 255 200 100
6.7557 -1.2795 0.0000 255 200 100
15.7738 -2.8699 0.7963 255 200 100
6.6593 1.7114 0.0104 255 200 100
23.6331 -10.6851 4.8534 255 200 100
7.2916 0.5121 0.0312 255 200 100
9.3461 -3.0957 -0.0345 255 200 100
7.1855 1.8269 0.0082 255 200 100
25.6714 -6.9273 3.6657 255 200 100
7.3143 -0.5282 0.0210 255 200 100
10.1869 -3.9055 -0.0137 255 200 100
10.1342 5.1178 -0.0519 255 200 100
11.7651 3.8144 0.0083 255 200 100
16.2214 -6.8827 0.3317 255 200 100
15.4321 -4.9683 0.8009 255 200 100
6.7090 -1.7003 -0.0148 255 200 100
18.2908 -9.0584 1.0122 255 200 100
11.7765 -0.4863 0.0685 255 200 100
6.8744 3.0215 -0.0094 255 200 100
6.6536 1.7832 0.0068 255 200 100
15.7292 -2.9528 1.1490 255 200 100
11.6288 -2.9120 0.0409 255 200 100
17.7012 0.1067 0.2841 255 200 100
8.6045 -0.1035 0.0360 255 200 100
24.5119 -7.3427 4.1785 255 200 100
9.9396 -4.8303 -0.0298 255 200 100
22.0173 7.3589 0.8889 255 200 100
23.0734 -12.8633 4.3578 255 200 100
11.8133 3.4109 0.0144 255 200 100
15.4232 -0.1547 0.1565 255 200 100
16.1182 -1.0576 0.7834 255 200 100
25.4690 -3.4818 5.3256 255 200 100
15.9941 -1.4027 1.1414 255 200 100
6.2143 -1.7905 -0.0159 255 200 100
18.0938 -9.8580 1.0189 255 200 100
6.6663 -2.0198 -0.0290 255 200 100
7.2881 -1.0520 0.0114 255 200 100
24.5917 -10.8184 2.5292 255 200 100
24.6560 -10.6845 1.9238 255 200 100
6.8078 0.2010 0.0243 255 200 100
23.8022 -4.1705 3.4754 255 200 100
9.1750 4.2824 -0.0570 255 200 100
7.4163 3.6817 -0.0374 255 200 100
16.4558 -6.1385 0.3265 255 200 100
9.3355 3.3591 -0.0280 255 200 100
24.4699 -11.4297 1.9370 255 200 100
12.8620 -3.2510 0.1247 255 200 100
8.3583 2.9340 -0.0021 255 200 100
6.7500 1.1983 0.0143 255 200 100
10.5019 0.4640 0.0506 255 200 100
7.8943 -0.1313 0.0336 255 200 100
15.9921 -1.4046 1.4918 255 200 100
7.7796 1.9964 0.0095 255 200 100
10.3704 3.8953 -0.0216 255 200 100
15.8734 -2.3636 1.8471 255 200 100
6.7962 0.4749 0.0247 255 200 100
10.4463 -1.2043 0.0468 255 200 100
11.6540 4.4901 -0.0008 255 200 100
9.1031 4.5493 -0.0633 255 200 100
8.5950 -0.4607 0.0346 255 200 100
10.4527 -1.2610 0.0443 255 200 100
25.5243 -3.3399 4.7412 255 200 100
21.6073 1.2027 0.4083 255 200 100
14.7531 -3.4252 0.1954 255 200 100
24.9110 -9.8155 1.3045 255 200 100
8.4710 2.4319 0.0031 255 200 100
18.3741 6.9195 0.1801 255 200 100
11.8677 3.0145 0.0176 255 200 100
14.9400 -2.6208 0.1884 255 200 100
7.2113 -1.9704 -0.0210 255 200 100
23.3713 -11.6848 4.8973 255 200 100
7.3019 -0.3780 0.0276 255 200 100
15.9173 -1.8354 1.4933 255 200 100
15.7754 -8.3044 0.3368 255 200 100
7.3089 -0.9034 0.0114 255 200 100
7.9042 -0.4164 0.0277 255 200 100
15.9479 -1.6598 1.1428 255 200 100
7.9138 0.2744 0.0289 255 200 100
24.4382 -7.4670 5.3403 255 200 100
6.3164 0.9484 0.0202 255 200 100
7.3012 0.1046 0.0318 255 200 100
25.2944 -8.2047 1.8870 255 200 100
7.3191 -0.1559 0.0256 255 200 100
15.6577 -3.5626 0.7989 255 200 100
17.2162 -3.0521 0.3064 255 200 100
8.3004 3.3140 -0.0160 255 200 100
25.3019 -8.5200 3.6929 255 200 100
7.6515 2.6130 0.0010 255 200 100
7.8500 -1.6509 -0.0010 255 200 100
6.7225 -1.6678 -0.0163 255 200 100
6.7084 -1.7363 -0.0174 255 200 100
7.8766 0.8422 0.0307 255 200 100
6.3255 0.8209 0.0227 255 200 100
24.8638 -10.1131 3.7280 255 200 100
7.2285 -1.8948 -0.0202 255 200 100
16.1718 0.2991 0.3378 0 255 0
16.1654 0.2655 0.3378 0 255 0
16.1591 0.2320 0.3378 0 255 0
16.1528 0.1984 0.3378 0 255 0
16.1465 0.1648 0.3378 0 255 0
16.1401 0.1313 0.3378 0 255 0
16.1338 0.0977 0.3378 0 255 0
16.1275 0.0641 0.3378 0 255 0
16.1211 0.0305 0.3378 0 255 0
16.1148 -0.0030 0.3378 0 255 0
16.1085 -0.0366 0.3378 0 255 0
16.1021 -0.0702 0.3378 0 255 0
16.0958 -0.1037 0.3378 0 255 0
16.0895 -0.1373 0.3378 0 255 0
16.0832 -0.1709 0.3378 0 255 0
16.0768 -0.2045 0.3378 0 255 0
16.0705 -0.2380 0.3378 0 255 0
16.0642 -0.2716 0.3378 0 255 0
16.0578 -0.3052 0.3378 0 255 0
16.0515 -0.3388 0.3378 0 255 0
16.0452 -0.3723 0.3378 0 255 0
16.0388 -0.4059 0.3378 0 255 0
16.0325 -0.4395 0.3378 0 255 0
16.0262 -0.4730 0.3378 0 255 0
16.0199 -0.5066 0.3378 0 255 0
16.0135 -0.5402 0.3378 0 255 0
16.0072 -0.5738 0.3378 0 255 0
16.0009 -0.6073 0.3378 0 255 0
15.9945 -0.6409 0.3378 0 255 0
15.9882 -0.6745 0.3378 0 255 0
15.9819 -0.7080 0.3378 0 255 0
15.9756 -0.7416 0.3378 0 255 0
15.9692 -0.7752 0.3378 0 255 0
15.9629 -0.8088 0.3378 0 255 0
15.9566 -0.8423 0.3378 0 255 0
15.9502 -0.8759 0.3378 0 255 0
15.9439 -0.9095 0.3378 0 255 0
15.9376 -0.9431 0.3378 0 255 0
15.9312 -0.9766 0.3378 0 255 0
15.9249 -1.0102 0.3378 0 255 0
15.9186 -1.0438 0.3378 0 255 0
15.9123 -1.0773 0.3378 0 255 0
15.9059 -1.1109 0.3378 0 255 0
15.8996 -1.1445 0.3378 0 255 0
15.8933 -1.1781 0.3378 0 255 0
15.8869 -1.2116 0.3378 0 255 0
15.8806 -1.2452 0.3378 0 255 0
15.8743 -1.2788 0.3378 0 255 0
15.8679 -1.3123 0.3378 0 255 0
15.8616 -1.3459 0.3378 0 255 0
15.8553 -1.3795 0.3378 0 255 0
15.8490 -1.4131 0.3378 0 255 0
15.8426 -1.4466 0.3378 0 255 0
15.8363 -1.4802 0.3378 0 255 0
15.8300 -1.5138 0.3378 0 255 0
15.8236 -1.5474 0.3378 0 255 0
15.8173 -1.5809 0.3378 0 255 0
15.8110 -1.6145 0.3378 0 255 0
15.8047 -1.6481 0.3378 0 255 0
15.7983 -1.6816 0.3378 0 255 0
15.7920 -1.7152 0.3378 0 255 0
15.7857 -1.7488 0.3378 0 255 0
15.7793 -1.7824 0.3378 0 255 0
15.7730 -1.8159 0.3378 0 255 0
15.7667 -1.8495 0.3378 0 255 0
15.7603 -1.8831 0.3378 0 255 0
15.7540 -1.9166 0.3378 0 255 0
15.7477 -1.9502 0.3378 0 255 0
15.7414 -1.9838 0.3378 0 255 0
15.7350 -2.0174 0.3378 0 255 0
15.7287 -2.0509 0.3378 0 255 0
15.7224 -2.0845 0.3378 0 255 0
15.7160 -2.1181 0.3378 0 255 0
15.7097 -2.1517 0.3378 0 255 0
15.7034 -2.1852 0.3378 0 255 0
15.6971 -2.2188 0.3378 0 255 0
15.6907 -2.2524 0.3378 0 255 0
15.6844 -2.2859 0.3378 0 255 0
15.6781 -2.3195 0.3378 0 255 0
15.6717 -2.3531 0.3378 0 255 0
15.6654 -2.3867 0.3378 0 255 0
15.6591 -2.4202 0.3378 0 255 0
15.6527 -2.4538 0.3378 0 255 0
15.6464 -2.4874 0.3378 0 255 0
15.6401 -2.5209 0.3378 0 255 0
15.6338 -2.5545 0.3378 0 255 0
15.6274 -2.5881 0.3378 0 255 0
15.6211 -2.6217 0.3378 0 255 0
15.6148 -2.6552 0.3378 0 255 0
15.6084 -2.6888 0.3378 0 255 0
15.6021 -2.7224 0.3378 0 255 0
15.5958 -2.7560 0.3378 0 255 0
15.5894 -2.7895 0.3378 0 255 0
15.5831 -2.8231 0.3378 0 255 0
15.5768 -2.8567 0.3378 0 255 0
15.5705 -2.8902 0.3378 0 255 0
15.5641 -2.9238 0.3378 0 255 0
15.5578 -2.9574 0.3378 0 255 0
15.5515 -2.9910 0.3378 0 255 0
15.5451 -3.0245 0.3378 0 255 0
15.5388 -3.0581 0.3378 0 255 0
15.5325 -3.0917 0.3378 0 255 0
15.5262 -3.1252 0.3378 0 255 0
15.5198 -3.1588 0.3378 0 255 0
15.5135 -3.1924 0.3378 0 255 0
15.5072 -3.2260 0.3378 0 255 0
15.5008 -3.2595 0.3378 0 255 0
15.4945 -3.2931 0.3378 0 255 0
15.4882 -3.3267 0.3378 0 255 0
15.4818 -3.3602 0.3378 0 255 0
15.4755 -3.3938 0.3378 0 255 0
15.4692 -3.4274 0.3378 0 255 0
15.4629 -3.4610 0.3378 0 255 0
15.4565 -3.4945 0.3378 0 255 0
15.4502 -3.5281 0.3378 0 255 0
15.4439 -3.5617 0.3378 0 255 0
15.4375 -3.5953 0.3378 0 255 0
15.4312 -3.6288 0.3378 0 255 0
15.4249 -3.6624 0.3378 0 255 0
15.4185 -3.6960 0.3378 0 255 0
15.4122 -3.7295 0.3378 0 255 0
15.4059 -3.7631 0.3378 0 255 0
15.3996 -3.7967 0.3378 0 255 0
15.3932 -3.8303 0.3378 0 255 0
15.3869 -3.8638 0.3378 0 255 0
15.3806 -3.8974 0.3378 0 255 0
15.3742 -3.9310 0.3378 0 255 0
15.3679 -3.9645 0.3378 0 255 0
15.3616 -3.9981 0.3378 0 255 0
15.3553 -4.0317 0.3378 0 255 0
15.3489 -4.0653 0.3378 0 255 0
15.3426 -4.0988 0.3378 0 255 0
15.3363 -4.1324 0.3378 0 255 0
15.3299 -4.1660 0.3378 0 255 0
15.3236 -4.1996 0.3378 0 255 0
15.3173 -4.2331 0.3378 0 255 0
15.3109 -4.2667 0.3378 0 255 0
15.3046 -4.3003 0.3378 0 255 0
15.2983 -4.3338 0.3378 0 255 0
15.2920 -4.3674 0.3378 0 255 0
15.2856 -4.4010 0.3378 0 255 0
15.2793 -4.4346 0.3378 0 255 0
15.2730 -4.4681 0.3378 0 255 0
15.2666 -4.5017 0.3378 0 255 0
15.2603 -4.5353 0.3378 0 255 0
15.2540 -4.5688 0.3378 0 255 0
15.2476 -4.6024 0.3378 0 255 0
15.2413 -4.6360 0.3378 0 255 0
15.2350 -4.6696 0.3378 0 255 0
15.2287 -4.7031 0.3378 0 255 0
15.2223 -4.7367 0.3378 0 255 0
15.2160 -4.7703 0.3378 0 255 0
15.2097 -4.8039 0.3378 0 255 0
15.2033 -4.8374 0.3378 0 255 0
15.1970 -4.8710 0.3378 0 255 0
15.1907 -4.9046 0.3378 0 255 0
15.1844 -4.9381 0.3378 0 255 0
15.1780 -4.9717 0.3378 0 255 0
15.1717 -5.0053 0.3378 0 255 0
15.1654 -5.0389 0.3378 0 255 0
15.1590 -5.0724 0.3378 0 255 0
15.1527 -5.1060 0.3378 0 255 0
15.1464 -5.1396 0.3378 0 255 0
15.1400 -5.1731 0.3378 0 255 0
15.1337 -5.2067 0.3378 0 255 0
15.1274 -5.2403 0.3378 0 255 0
15.1274 -5.2403 0.3378 0 255 0
15.1426 -5.2432 0.3378 0 255 0
15.1579 -5.2460 0.3378 0 255 0
15.1731 -5.2489 0.3378 0 255 0
15.1884 -5.2518 0.3378 0 255 0
15.2036 -5.2547 0.3378 0 255 0
15.2189 -5.2575 0.3378 0 255 0
15.2341 -5.2604 0.3378 0 255 0
15.2494 -5.2633 0.3378 0 255 0
15.2646 -5.2662 0.3378 0 255 0
15.2799 -5.2690 0.3378 0 255 0
15.2951 -5.2719 0.3378 0 255 0
15.3103 -5.2748 0.3378 0 255 0
15.3256 -5.2777 0.3378 0 255 0
15.3408 -5.2805 0.3378 0 255 0
15.3561 -5.2834 0.3378 0 255 0
15.3713 -5.2863 0.3378 0 255 0
15.3866 -5.2892 0.3378 0 255 0
15.4018 -5.2920 0.3378 0 255 0
15.4171 -5.2949 0.3378 0 255 0
15.4323 -5.2978 0.3378 0 255 0
15.4476 -5.3007 0.3378 0 255 0
15.4628 -5.3035 0.3378 0 255 0
15.4781 -5.3064 0.3378 0 255 0
15.4933 -5.3093 0.3378 0 255 0
15.5085 -5.3122 0.3378 0 255 0
15.5238 -5.3150 0.3378 0 255 0
15.5390 -5.3179 0.3378 0 255 0
15.5543 -5.3208 0.3378 0 255 0
15.5695 -5.3237 0.3378 0 255 0
15.5848 -5.3265 0.3378 0 255 0
15.6000 -5.3294 0.3378 0 255 0
15.6153 -5.3323 0.3378 0 255 0
15.6305 -5.3352 0.3378 0 255 0
15.6458 -5.3380 0.3378 0 255 0
15.6610 -5.3409 0.3378 0 255 0
15.6763 -5.3438 0.3378 0 255 0
15.6915 -5.3466 0.3378 0 255 0
15.7068 -5.3495 0.3378 0 255 0
15.7220 -5.3524 0.3378 0 255 0
15.7372 -5.3553 0.3378 0 255 0
15.7525 -5.3581 0.3378 0 255 0
15.7677 -5.3610 0.3378 0 255 0
15.7830 -5.3639 0.3378 0 255 0
15.7982 -5.3668 0.3378 0 255 0
15.8135 -5.3696 0.3378 0 255 0
15.8287 -5.3725 0.3378 0 255 0
15.8440 -5.3754 0.3378 0 255 0
15.8592 -5.3783 0.3378 0 255 0
15.8745 -5.3811 0.3378 0 255 0
15.8897 -5.3840 0.3378 0 255 0
15.9050 -5.3869 0.3378 0 255 0
15.9202 -5.3898 0.3378 0 255 0
15.9355 -5.3926 0.3378 0 255 0
15.9507 -5.3955 0.3378 0 255 0
15.9659 -5.3984 0.3378 0 255 0
15.9812 -5.4013 0.3378 0 255 0
15.9964 -5.4041 0.3378 0 255 0
16.0117 -5.4070 0.3378 0 255 0
16.0269 -5.4099 0.3378 0 255 0
16.0422 -5.4128 0.3378 0 255 0
16.0574 -5.4156 0.3378 0 255 0
16.0727 -5.4185 0.3378 0 255 0
16.0879 -5.4214 0.3378 0 255 0
16.1032 -5.4243 0.3378 0 255 0
16.1184 -5.4271 0.3378 0 255 0
16.1337 -5.4300 0.3378 0 255 0
16.1489 -5.4329 0.3378 0 255 0
16.1642 -5.4358 0.3378 0 255 0
16.1794 -5.4386 0.3378 0 255 0
16.1946 -5.4415 0.3378 0 255 0
16.2099 -5.4444 0.3378 0 255 0
16.2251 -5.4473 0.3378 0 255 0
16.2404 -5.4501 0.3378 0 255 0
16.2556 -5.4530 0.3378 0 255 0
16.2709 -5.4559 0.3378 0 255 0
16.2861 -5.4588 0.3378 0 255 0
16.3014 -5.4616 0.3378 0 255 0
16.3166 -5.4645 0.3378 0 255 0
16.3319 -5.4674 0.3378 0 255 0
16.3471 -5.4703 0.3378 0 255 0
16.3624 -5.4731 0.3378 0 255 0
16.3776 -5.4760 0.3378 0 255 0
16.3928 -5.4789 0.3378 0 255 0
16.4081 -5.4818 0.3378 0 255 0
16.4233 -5.4846 0.3378 0 255 0
16.4386 -5.4875 0.3378 0 255 0
16.4538 -5.4904 0.3378 0 255 0
16.4691 -5.4932 0.3378 0 255 0
16.4843 -5.4961 0.3378 0 255 0
16.4996 -5.4990 0.3378 0 255 0
16.5148 -5.5019 0.3378 0 255 0
16.5301 -5.5047 0.3378 0 255 0
16.5453 -5.5076 0.3378 0 255 0
16.5606 -5.5105 0.3378 0 255 0
16.5758 -5.5134 0.3378 0 255 0
16.5911 -5.5162 0.3378 0 255 0
16.6063 -5.5191 0.3378 0 255 0
16.6215 -5.5220 0.3378 0 255 0
16.6368 -5.5249 0.3378 0 255 0
16.6520 -5.5277 0.3378 0 255 0
16.6673 -5.5306 0.3378 0 255 0
16.6825 -5.5335 0.3378 0 255 0
16.6978 -5.5364 0.3378 0 255 0
16.7130 -5.5392 0.3378 0 255 0
16.7283 -5.5421 0.3378 0 255 0
16.7435 -5.5450 0.3378 0 255 0
16.7588 -5.5479 0.3378 0 255 0
16.7740 -5.5507 0.3378 0 255 0
16.7893 -5.5536 0.3378 0 255 0
16.8045 -5.5565 0.3378 0 255 0
16.8198 -5.5594 0.3378 0 255 0
16.8350 -5.5622 0.3378 0 255 0
16.8502 -5.5651 0.3378 0 255 0
16.8655 -5.5680 0.3378 0 255 0
16.8807 -5.5709 0.3378 0 255 0
16.8960 -5.5737 0.3378 0 255 0
16.9112 -5.5766 0.3378 0 255 0
16.9265 -5.5795 0.3378 0 255 0
16.9417 -5.5824 0.3378 0 255 0
16.9570 -5.5852 0.3378 0 255 0
16.9722 -5.5881 0.3378 0 255 0
16.9875 -5.5910 0.3378 0 255 0
17.0027 -5.5939 0.3378 0 255 0
17.0180 -5.5967 0.3378 0 255 0
17.0332 -5.5996 0.3378 0 255 0
17.0485 -5.6025 0.3378 0 255 0
17.0637 -5.6054 0.3378 0 255 0
17.0789 -5.6082 0.3378 0 255 0
17.0942 -5.6111 0.3378 0 255 0
17.1094 -5.6140 0.3378 0 255 0
17.1247 -5.6169 0.3378 0 255 0
17.1399 -5.6197 0.3378 0 255 0
17.1552 -5.6226 0.3378 0 255 0
17.1704 -5.6255 0.3378 0 255 0
17.1857 -5.6284 0.3378 0 255 0
17.2009 -5.6312 0.3378 0 255 0
17.2162 -5.6341 0.3378 0 255 0
17.2314 -5.6370 0.3378 0 255 0
17.2467 -5.6399 0.3378 0 255 0
17.2619 -5.6427 0.3378 0 255 0
17.2771 -5.6456 0.3378 0 255 0
17.2924 -5.6485 0.3378 0 255 0
17.3076 -5.6513 0.3378 0 255 0
17.3229 -5.6542 0.3378 0 255 0
17.3381 -5.6571 0.3378 0 255 0
17.3534 -5.6600 0.3378 0 255 0
17.3686 -5.6628 0.3378 0 255 0
17.3839 -5.6657 0.3378 0 255 0
17.3991 -5.6686 0.3378 0 255 0
17.4144 -5.6715 0.3378 0 255 0
17.4296 -5.6743 0.3378 0 255 0
17.4449 -5.6772 0.3378 0 255 0
17.4601 -5.6801 0.3378 0 255 0
17.4754 -5.6830 0.3378 0 255 0
17.4906 -5.6858 0.3378 0 255 0
17.5058 -5.6887 0.3378 0 255 0
17.5211 -5.6916 0.3378 0 255 0
17.5363 -5.6945 0.3378 0 255 0
17.5516 -5.6973 0.3378 0 255 0
17.5668 -5.7002 0.3378 0 255 0
17.5821 -5.7031 0.3378 0 255 0
17.5973 -5.7060 0.3378 0 255 0
17.6126 -5.7088 0.3378 0 255 0
17.6278 -5.7117 0.3378 0 255 0
17.6431 -5.7146 0.3378 0 255 0
17.6431 -5.7146 0.3378 0 255 0
17.6494 -5.6810 0.3378 0 255 0
17.6557 -5.6474 0.3378 0 255 0
17.6621 -5.6139 0.3378 0 255 0
17.6684 -5.5803 0.3378 0 255 0
17.6747 -5.5467 0.3378 0 255 0
17.6810 -5.5132 0.3378 0 255 0
17.6874 -5.4796 0.3378 0 255 0
17.6937 -5.4460 0.3378 0 255 0
17.7000 -5.4124 0.3378 0 255 0
17.7064 -5.3789 0.3378 0 255 0
17.7127 -5.3453 0.3378 0 255 0
17.7190 -5.3117 0.3378 0 255 0
17.7253 -5.2782 0.3378 0 255 0
17.7317 -5.2446 0.3378 0 255 0
17.7380 -5.2110 0.3378 0 255 0
17.7443 -5.1774 0.3378 0 255 0
17.7507 -5.1439 0.3378 0 255 0
17.7570 -5.1103 0.3378 0 255 0
17.7633 -5.0767 0.3378 0 255 0
17.7697 -5.0431 0.3378 0 255 0
17.7760 -5.0096 0.3378 0 255 0
17.7823 -4.9760 0.3378 0 255 0
17.7886 -4.9424 0.3378 0 255 0
17.7950 -4.9089 0.3378 0 255 0
17.8013 -4.8753 0.3378 0 255 0
17.8076 -4.8417 0.3378 0 255 0
17.8140 -4.8081 0.3378 0 255 0
17.8203 -4.7746 0.3378 0 255 0
17.8266 -4.7410 0.3378 0 255 0
17.8330 -4.7074 0.3378 0 255 0
17.8393 -4.6739 0.3378 0 255 0
17.8456 -4.6403 0.3378 0 255 0
17.8519 -4.6067 0.3378 0 255 0
17.8583 -4.5731 0.3378 0 255 0
17.8646 -4.5396 0.3378 0 255 0
17.8709 -4.5060 0.3378 0 255 0
17.8773 -4.4724 0.3378 0 255 0
17.8836 -4.4388 0.3378 0 255 0
17.8899 -4.4053 0.3378 0 255 0
17.8962 -4.3717 0.3378 0 255 0
17.9026 -4.3381 0.3378 0 255 0
17.9089 -4.3046 0.3378 0 255 0
17.9152 -4.2710 0.3378 0 255 0
17.9216 -4.2374 0.3378 0 255 0
17.9279 -4.2038 0.3378 0 255 0
17.9342 -4.1703 0.3378 0 255 0
17.9406 -4.1367 0.3378 0 255 0
17.9469 -4.1031 0.3378 0 255 0
17.9532 -4.0696 0.3378 0 255 0
17.9595 -4.0360 0.3378 0 255 0
17.9659 -4.0024 0.3378 0 255 0
17.9722 -3.9688 0.3378 0 255 0
17.9785 -3.9353 0.3378 0 255 0
17.9849 -3.9017 0.3378 0 255 0
17.9912 -3.8681 0.3378 0 255 0
17.9975 -3.8345 0.3378 0 255 0
18.0039 -3.8010 0.3378 0 255 0
18.0102 -3.7674 0.3378 0 255 0
18.0165 -3.7338 0.3378 0 255 0
18.0228 -3.7003 0.3378 0 255 0
18.0292 -3.6667 0.3378 0 255 0
18.0355 -3.6331 0.3378 0 255 0
18.0418 -3.5995 0.3378 0 255 0
18.0482 -3.5660 0.3378 0 255 0
18.0545 -3.5324 0.3378 0 255 0
18.0608 -3.4988 0.3378 0 255 0
18.0671 -3.4653 0.3378 0 255 0
18.0735 -3.4317 0.3378 0 255 0
18.0798 -3.3981 0.3378 0 255 0
18.0861 -3.3645 0.3378 0 255 0
18.0925 -3.3310 0.3378 0 255 0
18.0988 -3.2974 0.3378 0 255 0
18.1051 -3.2638 0.3378 0 255 0
18.1115 -3.2302 0.3378 0 255 0
18.1178 -3.1967 0.3378 0 255 0
18.1241 -3.1631 0.3378 0 255 0
18.1304 -3.1295 0.3378 0 255 0
18.1368 -3.0960 0.3378 0 255 0
18.1431 -3.0624 0.3378 0 255 0
18.1494 -3.0288 0.3378 0 255 0
18.1558 -2.9952 0.3378 0 255 0
18.1621 -2.9617 0.3378 0 255 0
18.1684 -2.9281 0.3378 0 255 0
18.1748 -2.8945 0.3378 0 255 0
18.1811 -2.8610 0.3378 0 255 0
18.1874 -2.8274 0.3378 0 255 0
18.1937 -2.7938 0.3378 0 255 0
18.2001 -2.7602 0.3378 0 255 0
18.2064 -2.7267 0.3378 0 255 0
18.2127 -2.6931 0.3378 0 255 0
18.2191 -2.6595 0.3378 0 255 0
18.2254 -2.6259 0.3378 0 255 0
18.2317 -2.5924 0.3378 0 255 0
18.2380 -2.5588 0.3378 0 255 0
18.2444 -2.5252 0.3378 0 255 0
18.2507 -2.4917 0.3378 0 255 0
18.2570 -2.4581 0.3378 0 255 0
18.2634 -2.4245 0.3378 0 255 0
18.2697 -2.3909 0.3378 0 255 0
18.2760 -2.3574 0.3378 0 255 0
18.2824 -2.3238 0.3378 0 255 0
18.2887 -2.2902 0.3378 0 255 0
18.2950 -2.2567 0.3378 0 255 0
18.3013 -2.2231 0.3378 0 255 0
18.3077 -2.1895 0.3378 0 255 0
18.3140 -2.1559 0.3378 0 255 0
18.3203 -2.1224 0.3378 0 255 0
18.3267 -2.0888 0.3378 0 255 0
18.3330 -2.0552 0.3378 0 255 0
18.3393 -2.0217 0.3378 0 255 0
18.3456 -1.9881 0.3378 0 255 0
18.3520 -1.9545 0.3378 0 255 0
18.3583 -1.9209 0.3378 0 255 0
18.3646 -1.8874 0.3378 0 255 0
18.3710 -1.8538 0.3378 0 255 0
18.3773 -1.8202 0.3378 0 255 0
18.3836 -1.7866 0.3378 0 255 0
18.3900 -1.7531 0.3378 0 255 0
18.3963 -1.7195 0.3378 0 255 0
18.4026 -1.6859 0.3378 0 255 0
18.4089 -1.6524 0.3378 0 255 0
18.4153 -1.6188 0.3378 0 255 0
18.4216 -1.5852 0.3378 0 255 0
18.4279 -1.5516 0.3378 0 255 0
18.4343 -1.5181 0.3378 0 255 0
18.4406 -1.4845 0.3378 0 255 0
18.4469 -1.4509 0.3378 0 255 0
18.4533 -1.4174 0.3378 0 255 0
18.4596 -1.3838 0.3378 0 255 0
18.4659 -1.3502 0.3378 0 255 0
18.4722 -1.3166 0.3378 0 255 0
18.4786 -1.2831 0.3378 0 255 0
18.4849 -1.2495 0.3378 0 255 0
18.4912 -1.2159 0.3378 0 255 0
18.4976 -1.1823 0.3378 0 255 0
18.5039 -1.1488 0.3378 0 255 0
18.5102 -1.1152 0.3378 0 255 0
18.5166 -1.0816 0.3378 0 255 0
18.5229 -1.0481 0.3378 0 255 0
18.5292 -1.0145 0.3378 0 255 0
18.5355 -0.9809 0.3378 0 255 0
18.5419 -0.9473 0.3378 0 255 0
18.5482 -0.9138 0.3378 0 255 0
18.5545 -0.8802 0.3378 0 255 0
18.5609 -0.8466 0.3378 0 255 0
18.5672 -0.8131 0.3378 0 255 0
18.5735 -0.7795 0.3378 0 255 0
18.5798 -0.7459 0.3378 0 255 0
18.5862 -0.7123 0.3378 0 255 0
18.5925 -0.6788 0.3378 0 255 0
18.5988 -0.6452 0.3378 0 255 0
18.6052 -0.6116 0.3378 0 255 0
18.6115 -0.5780 0.3378 0 255 0
18.6178 -0.5445 0.3378 0 255 0
18.6242 -0.5109 0.3378 0 255 0
18.6305 -0.4773 0.3378 0 255 0
18.6368 -0.4438 0.3378 0 255 0
18.6431 -0.4102 0.3378 0 255 0
18.6495 -0.3766 0.3378 0 255 0
18.6558 -0.3430 0.3378 0 255 0
18.6621 -0.3095 0.3378 0 255 0
18.6685 -0.2759 0.3378 0 255 0
18.6748 -0.2423 0.3378 0 255 0
18.6811 -0.2088 0.3378 0 255 0
18.6874 -0.1752 0.3378 0 255 0
18.6874 -0.1752 0.3378 0 255 0
18.6722 -0.1723 0.3378 0 255 0
18.6570 -0.1694 0.3378 0 255 0
18.6417 -0.1666 0.3378 0 255 0
18.6265 -0.1637 0.3378 0 255 0
18.6112 -0.1608 0.3378 0 255 0
18.5960 -0.1579 0.3378 0 255 0
18.5807 -0.1551 0.3378 0 255 0
18.5655 -0.1522 0.3378 0 255 0
18.5502 -0.1493 0.3378 0 255 0
18.5350 -0.1464 0.3378 0 255 0
18.5197 -0.1436 0.3378 0 255 0
18.5045 -0.1407 0.3378 0 255 0
18.4892 -0.1378 0.3378 0 255 0
18.4740 -0.1349 0.3378 0 255 0
18.4587 -0.1321 0.3378 0 255 0
18.4435 -0.1292 0.3378 0 255 0
18.4283 -0.1263 0.3378 0 255 0
18.4130 -0.1234 0.3378 0 255 0
18.3978 -0.1206 0.3378 0 255 0
18.3825 -0.1177 0.3378 0 255 0
18.3673 -0.1148 0.3378 0 255 0
18.3520 -0.1119 0.3378 0 255 0
18.3368 -0.1091 0.3378 0 255 0
18.3215 -0.1062 0.3378 0 255 0
18.3063 -0.1033 0.3378 0 255 0
18.2910 -0.1004 0.3378 0 255 0
18.2758 -0.0976 0.3378 0 255 0
18.2605 -0.0947 0.3378 0 255 0
18.2453 -0.0918 0.3378 0 255 0
18.2301 -0.0889 0.3378 0 255 0
18.2148 -0.0861 0.3378 0 255 0
18.1996 -0.0832 0.3378 0 255 0
18.1843 -0.0803 0.3378 0 255 0
18.1691 -0.0774 0.3378 0 255 0
18.1538 -0.0746 0.3378 0 255 0
18.1386 -0.0717 0.3378 0 255 0
18.1233 -0.0688 0.3378 0 255 0
18.1081 -0.0659 0.3378 0 255 0
18.0928 -0.0631 0.3378 0 255 0
18.0776 -0.0602 0.3378 0 255 0
18.0623 -0.0573 0.3378 0 255 0
18.0471 -0.0545 0.3378 0 255 0
18.0318 -0.0516 0.3378 0 255 0
18.0166 -0.0487 0.3378 0 255 0
18.0014 -0.0458 0.3378 0 255 0
17.9861 -0.0430 0.3378 0 255 0
17.9709 -0.0401 0.3378 0 255 0
17.9556 -0.0372 0.3378 0 255 0
17.9404 -0.0343 0.3378 0 255 0
17.9251 -0.0315 0.3378 0 255 0
17.9099 -0.0286 0.3378 0 255 0
17.8946 -0.0257 0.3378 0 255 0
17.8794 -0.0228 0.3378 0 255 0
17.8641 -0.0200 0.3378 0 255 0
17.8489 -0.0171 0.3378 0 255 0
17.8336 -0.0142 0.3378 0 255 0
17.8184 -0.0113 0.3378 0 255 0
17.8032 -0.0085 0.3378 0 255 0
17.7879 -0.0056 0.3378 0 255 0
17.7727 -0.0027 0.3378 0 255 0
17.7574 0.0002 0.3378 0 255 0
17.7422 0.0030 0.3378 0 255 0
17.7269 0.0059 0.3378 0 255 0
17.7117 0.0088 0.3378 0 255 0
17.6964 0.0117 0.3378 0 255 0
17.6812 0.0145 0.3378 0 255 0
17.6659 0.0174 0.3378 0 255 0
17.6507 0.0203 0.3378 0 255 0
17.6354 0.0232 0.3378 0 255 0
17.6202 0.0260 0.3378 0 255 0
17.6049 0.0289 0.3378 0 255 0
17.5897 0.0318 0.3378 0 255 0
17.5745 0.0347 0.3378 0 255 0
17.5592 0.0375 0.3378 0 255 0
17.5440 0.0404 0.3378 0 255 0
17.5287 0.0433 0.3378 0 255 0
17.5135 0.0462 0.3378 0 255 0
17.4982 0.0490 0.3378 0 255 0
17.4830 0.0519 0.3378 0 255 0
17.4677 0.0548 0.3378 0 255 0
17.4525 0.0577 0.3378 0 255 0
17.4372 0.0605 0.3378 0 255 0
17.4220 0.0634 0.3378 0 255 0
17.4067 0.0663 0.3378 0 255 0
17.3915 0.0692 0.3378 0 255 0
17.3762 0.0720 0.3378 0 255 0
17.3610 0.0749 0.3378 0 255 0
17.3458 0.0778 0.3378 0 255 0
17.3305 0.0807 0.3378 0 255 0
17.3153 0.0835 0.3378 0 255 0
17.3000 0.0864 0.3378 0 255 0
17.2848 0.0893 0.3378 0 255 0
17.2695 0.0922 0.3378 0 255 0
17.2543 0.0950 0.3378 0 255 0
17.2390 0.0979 0.3378 0 255 0
17.2238 0.1008 0.3378 0 255 0
17.2085 0.1036 0.3378 0 255 0
17.1933 0.1065 0.3378 0 255 0
17.1780 0.1094 0.3378 0 255 0
17.1628 0.1123 0.3378 0 255 0
17.1475 0.1151 0.3378 0 255 0
17.1323 0.1180 0.3378 0 255 0
17.1171 0.1209 0.3378 0 255 0
17.1018 0.1238 0.3378 0 255 0
17.0866 0.1266 0.3378 0 255 0
17.0713 0.1295 0.3378 0 255 0
17.0561 0.1324 0.3378 0 255 0
17.0408 0.1353 0.3378 0 255 0
17.0256 0.1381 0.3378 0 255 0
17.0103 0.1410 0.3378 0 255 0
16.9951 0.1439 0.3378 0 255 0
16.9798 0.1468 0.3378 0 255 0
16.9646 0.1496 0.3378 0 255 0
16.9493 0.1525 0.3378 0 255 0
16.9341 0.1554 0.3378 0 255 0
16.9188 0.1583 0.3378 0 255 0
16.9036 0.1611 0.3378 0 255 0
16.8884 0.1640 0.3378 0 255 0
16.8731 0.1669 0.3378 0 255 0
16.8579 0.1698 0.3378 0 255 0
16.8426 0.1726 0.3378 0 255 0
16.8274 0.1755 0.3378 0 255 0
16.8121 0.1784 0.3378 0 255 0
16.7969 0.1813 0.3378 0 255 0
16.7816 0.1841 0.3378 0 255 0
16.7664 0.1870 0.3378 0 255 0
16.7511 0.1899 0.3378 0 255 0
16.7359 0.1928 0.3378 0 255 0
16.7206 0.1956 0.3378 0 255 0
16.7054 0.1985 0.3378 0 255 0
16.6902 0.2014 0.3378 0 255 0
16.6749 0.2043 0.3378 0 255 0
16.6597 0.2071 0.3378 0 255 0
16.6444 0.2100 0.3378 0 255 0
16.6292 0.2129 0.3378 0 255 0
16.6139 0.2158 0.3378 0 255 0
16.5987 0.2186 0.3378 0 255 0
16.5834 0.2215 0.3378 0 255 0
16.5682 0.2244 0.3378 0 255 0
16.5529 0.2273 0.3378 0 255 0
16.5377 0.2301 0.3378 0 255 0
16.5224 0.2330 0.3378 0 255 0
16.5072 0.2359 0.3378 0 255 0
16.4919 0.2388 0.3378 0 255 0
16.4767 0.2416 0.3378 0 255 0
16.4615 0.2445 0.3378 0 255 0
16.4462 0.2474 0.3378 0 255 0
16.4310 0.2502 0.3378 0 255 0
16.4157 0.2531 0.3378 0 255 0
16.4005 0.2560 0.3378 0 255 0
16.3852 0.2589 0.3378 0 255 0
16.3700 0.2617 0.3378 0 255 0
16.3547 0.2646 0.3378 0 255 0
16.3395 0.2675 0.3378 0 255 0
16.3242 0.2704 0.3378 0 255 0
16.3090 0.2732 0.3378 0 255 0
16.2937 0.2761 0.3378 0 255 0
16.2785 0.2790 0.3378 0 255 0
16.2632 0.2819 0.3378 0 255 0
16.2480 0.2847 0.3378 0 255 0
16.2328 0.2876 0.3378 0 255 0
16.2175 0.2905 0.3378 0 255 0
16.2023 0.2934 0.3378 0 255 0
16.1870 0.2962 0.3378 0 255 0
16.1718 0.2991 0.3378 0 255 0
16.1718 0.2991 2.5668 0 255 0
16.1654 0.2655 2.5668 0 255 0
16.1591 0.2320 2.5668 0 255 0
16.1528 0.1984 2.5668 0 255 0
16.1465 0.1648 2.5668 0 255 0
16.1401 0.1313 2.5668 0 255 0
16.1338 0.0977 2.5668 0 255 0
16.1275 0.0641 2.5668 0 255 0
16.1211 0.0305 2.5668 0 255 0
16.1148 -0.0030 2.5668 0 255 0
16.1085 -0.0366 2.5668 0 255 0
16.1021 -0.0702 2.5668 0 255 0
16.0958 -0.1037 2.5668 0 255 0
16.0895 -0.1373 2.5668 0 255 0
16.0832 -0.1709 2.5668 0 255 0
16.0768 -0.2045 2.5668 0 255 0
16.0705 -0.2380 2.5668 0 255 0
16.0642 -0.2716 2.5668 0 255 0
16.0578 -0.3052 2.5668 0 255 0
16.0515 -0.3388 2.5668 0 255 0
16.0452 -0.3723 2.5668 0 255 0
16.0388 -0.4059 2.5668 0 255 0
16.0325 -0.4395 2.5668 0 255 0
16.0262 -0.4730 2.5668 0 255 0
16.0199 -0.5066 2.5668 0 255 0
16.0135 -0.5402 2.5668 0 255 0
16.0072 -0.5738 2.5668 0 255 0
16.0009 -0.6073 2.5668 0 255 0
15.9945 -0.6409 2.5668 0 255 0
15.9882 -0.6745 2.5668 0 255 0
15.9819 -0.7080 2.5668 0 255 0
15.9756 -0.7416 2.5668 0 255 0
15.9692 -0.7752 2.5668 0 255 0
15.9629 -0.8088 2.5668 0 255 0
15.9566 -0.8423 2.5668 0 255 0
15.9502 -0.8759 2.5668 0 255 0
15.9439 -0.9095 2.5668 0 255 0
15.9376 -0.9431 2.5668 0 255 0
15.9312 -0.9766 2.5668 0 255 0
15.9249 -1.0102 2.5668 0 255 0
15.9186 -1.0438 2.5668 0 255 0
