ply
format ascii 1.0
element vertex 1432
property float x
property float y
property float z
property uchar red
property uchar green
property uchar blue
end_header
16.2211 -8.3348 0.9915 100 150 255
16.2211 -8.3348 1.0013 100 150 255
16.2211 -8.3348 1.0111 100 150 255
16.2211 -8.3348 1.0210 100 150 255
16.2211 -8.3348 1.0308 100 150 255
16.2211 -8.3348 1.0407 100 150 255
16.2211 -8.3348 1.0505 100 150 255
16.2211 -8.3348 1.0603 100 150 255
16.2211 -8.3348 1.0702 100 150 255
16.2211 -8.3348 1.0800 100 150 255
16.2211 -8.3348 1.0899 100 150 255
16.2211 -8.3348 1.0997 100 150 255
16.2211 -8.3348 1.1095 100 150 255
16.2211 -8.3348 1.1194 100 150 255
16.2211 -8.3348 1.1292 100 150 255
16.2211 -8.3348 1.1391 100 150 255
16.2211 -8.3348 1.1489 100 150 255
16.2211 -8.3348 1.1587 100 150 255
16.2211 -8.3348 1.1686 100 150 255
16.2211 -8.3348 1.1784 100 150 255
16.2211 -8.3348 1.1883 100 150 255
16.2211 -8.3348 1.1981 100 150 255
16.2211 -8.3348 1.2079 100 150 255
16.2211 -8.3348 1.2178 100 150 255
16.2211 -8.3348 1.2276 100 150 255
16.2211 -8.3348 1.2374 100 150 255
16.2211 -8.3348 1.2473 100 150 255
16.2211 -8.3348 1.2571 100 150 255
16.2211 -8.3348 1.2670 100 150 255
16.2211 -8.3348 1.2768 100 150 255
16.2211 -8.3348 1.2866 100 150 255
16.2211 -8.3348 1.2965 100 150 255
16.2211 -8.3348 1.3063 100 150 255
16.2211 -8.3348 1.3162 100 150 255
16.2211 -8.3348 1.3260 100 150 255
16.2211 -8.3348 1.3358 100 150 255
16.2211 -8.3348 1.3457 100 150 255
16.2211 -8.3348 1.3555 100 150 255
16.2211 -8.3348 1.3654 100 150 255
16.2211 -8.3348 1.3752 100 150 255
16.2211 -8.3348 1.3850 100 150 255
16.2211 -8.3348 1.3949 100 150 255
16.2211 -8.3348 1.4047 100 150 255
16.2211 -8.3348 1.4146 100 150 255
16.2211 -8.3348 1.4244 100 150 255
16.2211 -8.3348 1.4342 100 150 255
16.2211 -8.3348 1.4441 100 150 255
16.2211 -8.3348 1.4539 100 150 255
16.2211 -8.3348 1.4638 100 150 255
16.2211 -8.3348 1.4736 100 150 255
16.2211 -8.3348 1.4834 100 150 255
16.2211 -8.3348 1.4933 100 150 255
16.2211 -8.3348 1.5031 100 150 255
16.2211 -8.3348 1.5130 100 150 255
16.2211 -8.3348 1.5228 100 150 255
16.2211 -8.3348 1.5326 100 150 255
16.2211 -8.3348 1.5425 100 150 255
16.2211 -8.3348 1.5523 100 150 255
16.2211 -8.3348 1.5622 100 150 255
16.2211 -8.3348 1.5720 100 150 255
16.2211 -8.3348 1.5818 100 150 255
16.2211 -8.3348 1.5917 100 150 255
16.2211 -8.3348 1.6015 100 150 255
16.2211 -8.3348 1.6113 100 150 255
16.2211 -8.3348 1.6212 100 150 255
16.2211 -8.3348 1.6310 100 150 255
16.2211 -8.3348 1.6409 100 150 255
16.2211 -8.3348 1.6507 100 150 255
16.2211 -8.3348 1.6605 100 150 255
16.2211 -8.3348 1.6704 100 150 255
16.2211 -8.3348 1.6802 100 150 255
16.2211 -8.3348 1.6901 100 150 255
16.2211 -8.3348 1.6999 100 150 255
16.2211 -8.3348 1.7097 100 150 255
16.2211 -8.3348 1.7196 100 150 255
16.2211 -8.3348 1.7294 100 150 255
16.2211 -8.3348 1.7393 100 150 255
16.2211 -8.3348 1.7491 100 150 255
16.2211 -8.3348 1.7589 100 150 255
16.2211 -8.3348 1.7688 100 150 255
16.2211 -8.3348 1.7786 100 150 255
16.2211 -8.3348 1.7885 100 150 255
16.2211 -8.3348 1.7983 100 150 255
16.2211 -8.3348 1.8081 100 150 255
16.2211 -8.3348 1.8180 100 150 255
16.2211 -8.3348 1.8278 100 150 255
16.2211 -8.3348 1.8377 100 150 255
16.2211 -8.3348 1.8475 100 150 255
16.2211 -8.3348 1.8573 100 150 255
16.2211 -8.3348 1.8672 100 150 255
16.2211 -8.3348 1.8770 100 150 255
16.2211 -8.3348 1.8869 100 150 255
16.2211 -8.3348 1.8967 100 150 255
16.2211 -8.3348 1.9065 100 150 255
16.2211 -8.3348 1.9164 100 150 255
16.2211 -8.3348 1.9262 100 150 255
16.2211 -8.3348 1.9361 100 150 255
16.2211 -8.3348 1.9459 100 150 255
16.2211 -8.3348 1.9557 100 150 255
16.2211 -8.3348 1.9656 100 150 255
16.2211 -8.3348 1.9754 100 150 255
16.2211 -8.3348 1.9852 100 150 255
16.2211 -8.3348 1.9951 100 150 255
15.9891 -9.8854 0.3487 255 40 40
16.0140 -9.8889 0.3487 255 40 40
16.0390 -9.8924 0.3487 255 40 40
16.0640 -9.8958 0.3487 255 40 40
16.0889 -9.8993 0.3487 255 40 40
16.1139 -9.9028 0.3487 255 40 40
16.1389 -9.9062 0.3487 255 40 40
16.1638 -9.9097 0.3487 255 40 40
16.1888 -9.9132 0.3487 255 40 40
16.2137 -9.9166 0.3487 255 40 40
16.2387 -9.9201 0.3487 255 40 40
16.2637 -9.9236 0.3487 255 40 40
16.2886 -9.9270 0.3487 255 40 40
16.3136 -9.9305 0.3487 255 40 40
16.3385 -9.9340 0.3487 255 40 40
16.3635 -9.9374 0.3487 255 40 40
16.3885 -9.9409 0.3487 255 40 40
16.4134 -9.9444 0.3487 255 40 40
16.4384 -9.9478 0.3487 255 40 40
16.4634 -9.9513 0.3487 255 40 40
16.4883 -9.9548 0.3487 255 40 40
16.5133 -9.9582 0.3487 255 40 40
16.5382 -9.9617 0.3487 255 40 40
16.5632 -9.9652 0.3487 255 40 40
16.5882 -9.9686 0.3487 255 40 40
16.6131 -9.9721 0.3487 255 40 40
16.6381 -9.9756 0.3487 255 40 40
16.6631 -9.9790 0.3487 255 40 40
16.6880 -9.9825 0.3487 255 40 40
16.7130 -9.9860 0.3487 255 40 40
16.7379 -9.9894 0.3487 255 40 40
16.7629 -9.9929 0.3487 255 40 40
16.7879 -9.9964 0.3487 255 40 40
16.8128 -9.9998 0.3487 255 40 40
16.8378 -10.0033 0.3487 255 40 40
16.8627 -10.0068 0.3487 255 40 40
16.8877 -10.0102 0.3487 255 40 40
16.9127 -10.0137 0.3487 255 40 40
16.9376 -10.0172 0.3487 255 40 40
16.9626 -10.0206 0.3487 255 40 40
16.9876 -10.0241 0.3487 255 40 40
17.0125 -10.0276 0.3487 255 40 40
17.0375 -10.0310 0.3487 255 40 40
17.0624 -10.0345 0.3487 255 40 40
17.0874 -10.0380 0.3487 255 40 40
17.1124 -10.0414 0.3487 255 40 40
17.1373 -10.0449 0.3487 255 40 40
17.1623 -10.0484 0.3487 255 40 40
17.1872 -10.0518 0.3487 255 40 40
17.2122 -10.0553 0.3487 255 40 40
17.2372 -10.0588 0.3487 255 40 40
17.2621 -10.0622 0.3487 255 40 40
17.2871 -10.0657 0.3487 255 40 40
17.3121 -10.0692 0.3487 255 40 40
17.3370 -10.0726 0.3487 255 40 40
17.3620 -10.0761 0.3487 255 40 40
17.3869 -10.0796 0.3487 255 40 40
17.4119 -10.0830 0.3487 255 40 40
17.4369 -10.0865 0.3487 255 40 40
17.4618 -10.0899 0.3487 255 40 40
17.4868 -10.0934 0.3487 255 40 40
17.5118 -10.0969 0.3487 255 40 40
17.5367 -10.1003 0.3487 255 40 40
17.5617 -10.1038 0.3487 255 40 40
17.5866 -10.1073 0.3487 255 40 40
17.6116 -10.1107 0.3487 255 40 40
17.6366 -10.1142 0.3487 255 40 40
17.6615 -10.1177 0.3487 255 40 40
17.6865 -10.1211 0.3487 255 40 40
17.7114 -10.1246 0.3487 255 40 40
17.7364 -10.1281 0.3487 255 40 40
17.7614 -10.1315 0.3487 255 40 40
17.7863 -10.1350 0.3487 255 40 40
17.8113 -10.1385 0.3487 255 40 40
17.8363 -10.1419 0.3487 255 40 40
17.8612 -10.1454 0.3487 255 40 40
17.8862 -10.1489 0.3487 255 40 40
17.9111 -10.1523 0.3487 255 40 40
17.9361 -10.1558 0.3487 255 40 40
17.9611 -10.1593 0.3487 255 40 40
17.9860 -10.1627 0.3487 255 40 40
18.0110 -10.1662 0.3487 255 40 40
18.0359 -10.1697 0.3487 255 40 40
18.0609 -10.1731 0.3487 255 40 40
18.0859 -10.1766 0.3487 255 40 40
18.1108 -10.1801 0.3487 255 40 40
18.1358 -10.1835 0.3487 255 40 40
18.1608 -10.1870 0.3487 255 40 40
18.1857 -10.1905 0.3487 255 40 40
18.2107 -10.1939 0.3487 255 40 40
18.2356 -10.1974 0.3487 255 40 40
18.2606 -10.2009 0.3487 255 40 40
18.2856 -10.2043 0.3487 255 40 40
18.3105 -10.2078 0.3487 255 40 40
18.3355 -10.2113 0.3487 255 40 40
18.3604 -10.2147 0.3487 255 40 40
18.3854 -10.2182 0.3487 255 40 40
18.4104 -10.2217 0.3487 255 40 40
18.4353 -10.2251 0.3487 255 40 40
18.4603 -10.2286 0.3487 255 40 40
18.4853 -10.2321 0.3487 255 40 40
18.5102 -10.2355 0.3487 255 40 40
18.5352 -10.2390 0.3487 255 40 40
18.5601 -10.2425 0.3487 255 40 40
18.5851 -10.2459 0.3487 255 40 40
18.6101 -10.2494 0.3487 255 40 40
18.6350 -10.2529 0.3487 255 40 40
18.6600 -10.2563 0.3487 255 40 40
18.6850 -10.2598 0.3487 255 40 40
18.7099 -10.2633 0.3487 255 40 40
18.7349 -10.2667 0.3487 255 40 40
18.7598 -10.2702 0.3487 255 40 40
18.7848 -10.2737 0.3487 255 40 40
18.8098 -10.2771 0.3487 255 40 40
18.8347 -10.2806 0.3487 255 40 40
18.8597 -10.2841 0.3487 255 40 40
18.8846 -10.2875 0.3487 255 40 40
18.9096 -10.2910 0.3487 255 40 40
18.9346 -10.2945 0.3487 255 40 40
18.9595 -10.2979 0.3487 255 40 40
18.9845 -10.3014 0.3487 255 40 40
19.0095 -10.3049 0.3487 255 40 40
19.0344 -10.3083 0.3487 255 40 40
19.0594 -10.3118 0.3487 255 40 40
19.0843 -10.3153 0.3487 255 40 40
19.1093 -10.3187 0.3487 255 40 40
19.1343 -10.3222 0.3487 255 40 40
19.1592 -10.3257 0.3487 255 40 40
19.1842 -10.3291 0.3487 255 40 40
19.2091 -10.3326 0.3487 255 40 40
19.2341 -10.3361 0.3487 255 40 40
19.2591 -10.3395 0.3487 255 40 40
19.2840 -10.3430 0.3487 255 40 40
19.3090 -10.3465 0.3487 255 40 40
19.3340 -10.3499 0.3487 255 40 40
19.3589 -10.3534 0.3487 255 40 40
19.3839 -10.3569 0.3487 255 40 40
19.4088 -10.3603 0.3487 255 40 40
19.4338 -10.3638 0.3487 255 40 40
19.4588 -10.3673 0.3487 255 40 40
19.4837 -10.3707 0.3487 255 40 40
19.5087 -10.3742 0.3487 255 40 40
19.5337 -10.3777 0.3487 255 40 40
19.5586 -10.3811 0.3487 255 40 40
19.5836 -10.3846 0.3487 255 40 40
19.6085 -10.3881 0.3487 255 40 40
19.6335 -10.3915 0.3487 255 40 40
19.6585 -10.3950 0.3487 255 40 40
19.6834 -10.3985 0.3487 255 40 40
19.7084 -10.4019 0.3487 255 40 40
19.7333 -10.4054 0.3487 255 40 40
19.7583 -10.4089 0.3487 255 40 40
19.7833 -10.4123 0.3487 255 40 40
19.8082 -10.4158 0.3487 255 40 40
19.8332 -10.4193 0.3487 255 40 40
19.8582 -10.4227 0.3487 255 40 40
19.8831 -10.4262 0.3487 255 40 40
19.9081 -10.4296 0.3487 255 40 40
19.9330 -10.4331 0.3487 255 40 40
19.9580 -10.4366 0.3487 255 40 40
19.9830 -10.4400 0.3487 255 40 40
20.0079 -10.4435 0.3487 255 40 40
20.0329 -10.4470 0.3487 255 40 40
20.0578 -10.4504 0.3487 255 40 40
20.0828 -10.4539 0.3487 255 40 40
20.1078 -10.4574 0.3487 255 40 40
20.1078 -10.4574 0.3487 255 40 40
20.1091 -10.4478 0.3487 255 40 40
20.1104 -10.4381 0.3487 255 40 40
20.1118 -10.4285 0.3487 255 40 40
20.1131 -10.4189 0.3487 255 40 40
20.1145 -10.4093 0.3487 255 40 40
20.1158 -10.3996 0.3487 255 40 40
20.1171 -10.3900 0.3487 255 40 40
20.1185 -10.3804 0.3487 255 40 40
20.1198 -10.3708 0.3487 255 40 40
20.1211 -10.3611 0.3487 255 40 40
20.1225 -10.3515 0.3487 255 40 40
20.1238 -10.3419 0.3487 255 40 40
20.1251 -10.3323 0.3487 255 40 40
20.1265 -10.3227 0.3487 255 40 40
20.1278 -10.3130 0.3487 255 40 40
20.1292 -10.3034 0.3487 255 40 40
20.1305 -10.2938 0.3487 255 40 40
20.1318 -10.2842 0.3487 255 40 40
20.1332 -10.2745 0.3487 255 40 40
20.1345 -10.2649 0.3487 255 40 40
20.1358 -10.2553 0.3487 255 40 40
20.1372 -10.2457 0.3487 255 40 40
20.1385 -10.2360 0.3487 255 40 40
20.1398 -10.2264 0.3487 255 40 40
20.1412 -10.2168 0.3487 255 40 40
20.1425 -10.2072 0.3487 255 40 40
20.1439 -10.1975 0.3487 255 40 40
20.1452 -10.1879 0.3487 255 40 40
20.1465 -10.1783 0.3487 255 40 40
20.1479 -10.1687 0.3487 255 40 40
20.1492 -10.1591 0.3487 255 40 40
20.1505 -10.1494 0.3487 255 40 40
20.1519 -10.1398 0.3487 255 40 40
20.1532 -10.1302 0.3487 255 40 40
20.1545 -10.1206 0.3487 255 40 40
20.1559 -10.1109 0.3487 255 40 40
20.1572 -10.1013 0.3487 255 40 40
20.1586 -10.0917 0.3487 255 40 40
20.1599 -10.0821 0.3487 255 40 40
20.1612 -10.0724 0.3487 255 40 40
20.1626 -10.0628 0.3487 255 40 40
20.1639 -10.0532 0.3487 255 40 40
20.1652 -10.0436 0.3487 255 40 40
20.1666 -10.0339 0.3487 255 40 40
20.1679 -10.0243 0.3487 255 40 40
20.1692 -10.0147 0.3487 255 40 40
20.1706 -10.0051 0.3487 255 40 40
20.1719 -9.9955 0.3487 255 40 40
20.1733 -9.9858 0.3487 255 40 40
20.1746 -9.9762 0.3487 255 40 40
20.1759 -9.9666 0.3487 255 40 40
20.1773 -9.9570 0.3487 255 40 40
20.1786 -9.9473 0.3487 255 40 40
20.1799 -9.9377 0.3487 255 40 40
20.1813 -9.9281 0.3487 255 40 40
20.1826 -9.9185 0.3487 255 40 40
20.1839 -9.9088 0.3487 255 40 40
20.1853 -9.8992 0.3487 255 40 40
20.1866 -9.8896 0.3487 255 40 40
20.1880 -9.8800 0.3487 255 40 40
20.1893 -9.8703 0.3487 255 40 40
20.1906 -9.8607 0.3487 255 40 40
20.1920 -9.8511 0.3487 255 40 40
20.1933 -9.8415 0.3487 255 40 40
20.1946 -9.8319 0.3487 255 40 40
20.1960 -9.8222 0.3487 255 40 40
20.1973 -9.8126 0.3487 255 40 40
20.1986 -9.8030 0.3487 255 40 40
20.2000 -9.7934 0.3487 255 40 40
20.2013 -9.7837 0.3487 255 40 40
20.2027 -9.7741 0.3487 255 40 40
20.2040 -9.7645 0.3487 255 40 40
20.2053 -9.7549 0.3487 255 40 40
20.2067 -9.7452 0.3487 255 40 40
20.2080 -9.7356 0.3487 255 40 40
20.2093 -9.7260 0.3487 255 40 40
20.2107 -9.7164 0.3487 255 40 40
20.2120 -9.7067 0.3487 255 40 40
20.2133 -9.6971 0.3487 255 40 40
20.2147 -9.6875 0.3487 255 40 40
20.2160 -9.6779 0.3487 255 40 40
20.2174 -9.6683 0.3487 255 40 40
20.2187 -9.6586 0.3487 255 40 40
20.2200 -9.6490 0.3487 255 40 40
20.2214 -9.6394 0.3487 255 40 40
20.2227 -9.6298 0.3487 255 40 40
20.2240 -9.6201 0.3487 255 40 40
20.2254 -9.6105 0.3487 255 40 40
20.2267 -9.6009 0.3487 255 40 40
20.2280 -9.5913 0.3487 255 40 40
20.2294 -9.5816 0.3487 255 40 40
20.2307 -9.5720 0.3487 255 40 40
20.2321 -9.5624 0.3487 255 40 40
20.2334 -9.5528 0.3487 255 40 40
20.2347 -9.5432 0.3487 255 40 40
20.2361 -9.5335 0.3487 255 40 40
20.2374 -9.5239 0.3487 255 40 40
20.2387 -9.5143 0.3487 255 40 40
20.2401 -9.5047 0.3487 255 40 40
20.2414 -9.4950 0.3487 255 40 40
20.2427 -9.4854 0.3487 255 40 40
20.2441 -9.4758 0.3487 255 40 40
20.2454 -9.4662 0.3487 255 40 40
20.2468 -9.4565 0.3487 255 40 40
20.2481 -9.4469 0.3487 255 40 40
20.2494 -9.4373 0.3487 255 40 40
20.2508 -9.4277 0.3487 255 40 40
20.2521 -9.4180 0.3487 255 40 40
20.2534 -9.4084 0.3487 255 40 40
20.2548 -9.3988 0.3487 255 40 40
20.2561 -9.3892 0.3487 255 40 40
20.2574 -9.3796 0.3487 255 40 40
20.2588 -9.3699 0.3487 255 40 40
20.2601 -9.3603 0.3487 255 40 40
20.2615 -9.3507 0.3487 255 40 40
20.2628 -9.3411 0.3487 255 40 40
20.2641 -9.3314 0.3487 255 40 40
20.2655 -9.3218 0.3487 255 40 40
20.2668 -9.3122 0.3487 255 40 40
20.2681 -9.3026 0.3487 255 40 40
20.2695 -9.2929 0.3487 255 40 40
20.2708 -9.2833 0.3487 255 40 40
20.2721 -9.2737 0.3487 255 40 40
20.2735 -9.2641 0.3487 255 40 40
20.2748 -9.2544 0.3487 255 40 40
20.2762 -9.2448 0.3487 255 40 40
20.2775 -9.2352 0.3487 255 40 40
20.2788 -9.2256 0.3487 255 40 40
20.2802 -9.2160 0.3487 255 40 40
20.2815 -9.2063 0.3487 255 40 40
20.2828 -9.1967 0.3487 255 40 40
20.2842 -9.1871 0.3487 255 40 40
20.2855 -9.1775 0.3487 255 40 40
20.2868 -9.1678 0.3487 255 40 40
20.2882 -9.1582 0.3487 255 40 40
20.2895 -9.1486 0.3487 255 40 40
20.2909 -9.1390 0.3487 255 40 40
20.2922 -9.1293 0.3487 255 40 40
20.2935 -9.1197 0.3487 255 40 40
20.2949 -9.1101 0.3487 255 40 40
20.2962 -9.1005 0.3487 255 40 40
20.2975 -9.0908 0.3487 255 40 40
20.2989 -9.0812 0.3487 255 40 40
20.3002 -9.0716 0.3487 255 40 40
20.3015 -9.0620 0.3487 255 40 40
20.3029 -9.0524 0.3487 255 40 40
20.3042 -9.0427 0.3487 255 40 40
20.3056 -9.0331 0.3487 255 40 40
20.3069 -9.0235 0.3487 255 40 40
20.3082 -9.0139 0.3487 255 40 40
20.3096 -9.0042 0.3487 255 40 40
20.3109 -8.9946 0.3487 255 40 40
20.3122 -8.9850 0.3487 255 40 40
20.3136 -8.9754 0.3487 255 40 40
20.3149 -8.9657 0.3487 255 40 40
20.3162 -8.9561 0.3487 255 40 40
20.3176 -8.9465 0.3487 255 40 40
20.3189 -8.9369 0.3487 255 40 40
20.3203 -8.9272 0.3487 255 40 40
20.3216 -8.9176 0.3487 255 40 40
20.3229 -8.9080 0.3487 255 40 40
20.3243 -8.8984 0.3487 255 40 40
20.3256 -8.8888 0.3487 255 40 40
20.3269 -8.8791 0.3487 255 40 40
20.3283 -8.8695 0.3487 255 40 40
20.3283 -8.8695 0.3487 255 40 40
20.3033 -8.8660 0.3487 255 40 40
20.2783 -8.8626 0.3487 255 40 40
20.2534 -8.8591 0.3487 255 40 40
20.2284 -8.8556 0.3487 255 40 40
20.2035 -8.8522 0.3487 255 40 40
20.1785 -8.8487 0.3487 255 40 40
20.1535 -8.8452 0.3487 255 40 40
20.1286 -8.8418 0.3487 255 40 40
20.1036 -8.8383 0.3487 255 40 40
20.0787 -8.8348 0.3487 255 40 40
20.0537 -8.8314 0.3487 255 40 40
20.0287 -8.8279 0.3487 255 40 40
20.0038 -8.8244 0.3487 255 40 40
19.9788 -8.8210 0.3487 255 40 40
19.9538 -8.8175 0.3487 255 40 40
19.9289 -8.8140 0.3487 255 40 40
19.9039 -8.8106 0.3487 255 40 40
19.8790 -8.8071 0.3487 255 40 40
19.8540 -8.8036 0.3487 255 40 40
19.8290 -8.8002 0.3487 255 40 40
19.8041 -8.7967 0.3487 255 40 40
19.7791 -8.7933 0.3487 255 40 40
19.7542 -8.7898 0.3487 255 40 40
19.7292 -8.7863 0.3487 255 40 40
19.7042 -8.7829 0.3487 255 40 40
19.6793 -8.7794 0.3487 255 40 40
19.6543 -8.7759 0.3487 255 40 40
19.6293 -8.7725 0.3487 255 40 40
19.6044 -8.7690 0.3487 255 40 40
19.5794 -8.7655 0.3487 255 40 40
19.5545 -8.7621 0.3487 255 40 40
19.5295 -8.7586 0.3487 255 40 40
19.5045 -8.7551 0.3487 255 40 40
19.4796 -8.7517 0.3487 255 40 40
19.4546 -8.7482 0.3487 255 40 40
19.4296 -8.7447 0.3487 255 40 40
19.4047 -8.7413 0.3487 255 40 40
19.3797 -8.7378 0.3487 255 40 40
19.3548 -8.7343 0.3487 255 40 40
19.3298 -8.7309 0.3487 255 40 40
19.3048 -8.7274 0.3487 255 40 40
19.2799 -8.7239 0.3487 255 40 40
19.2549 -8.7205 0.3487 255 40 40
19.2300 -8.7170 0.3487 255 40 40
19.2050 -8.7135 0.3487 255 40 40
19.1800 -8.7101 0.3487 255 40 40
19.1551 -8.7066 0.3487 255 40 40
19.1301 -8.7031 0.3487 255 40 40
19.1051 -8.6997 0.3487 255 40 40
19.0802 -8.6962 0.3487 255 40 40
19.0552 -8.6927 0.3487 255 40 40
19.0303 -8.6893 0.3487 255 40 40
19.0053 -8.6858 0.3487 255 40 40
18.9803 -8.6823 0.3487 255 40 40
18.9554 -8.6789 0.3487 255 40 40
18.9304 -8.6754 0.3487 255 40 40
18.9055 -8.6719 0.3487 255 40 40
18.8805 -8.6685 0.3487 255 40 40
18.8555 -8.6650 0.3487 255 40 40
18.8306 -8.6615 0.3487 255 40 40
18.8056 -8.6581 0.3487 255 40 40
18.7806 -8.6546 0.3487 255 40 40
18.7557 -8.6511 0.3487 255 40 40
18.7307 -8.6477 0.3487 255 40 40
18.7058 -8.6442 0.3487 255 40 40
18.6808 -8.6407 0.3487 255 40 40
18.6558 -8.6373 0.3487 255 40 40
18.6309 -8.6338 0.3487 255 40 40
18.6059 -8.6303 0.3487 255 40 40
18.5809 -8.6269 0.3487 255 40 40
18.5560 -8.6234 0.3487 255 40 40
18.5310 -8.6199 0.3487 255 40 40
18.5061 -8.6165 0.3487 255 40 40
18.4811 -8.6130 0.3487 255 40 40
18.4561 -8.6095 0.3487 255 40 40
18.4312 -8.6061 0.3487 255 40 40
18.4062 -8.6026 0.3487 255 40 40
18.3813 -8.5991 0.3487 255 40 40
18.3563 -8.5957 0.3487 255 40 40
18.3313 -8.5922 0.3487 255 40 40
18.3064 -8.5887 0.3487 255 40 40
18.2814 -8.5853 0.3487 255 40 40
18.2564 -8.5818 0.3487 255 40 40
18.2315 -8.5783 0.3487 255 40 40
18.2065 -8.5749 0.3487 255 40 40
18.1816 -8.5714 0.3487 255 40 40
18.1566 -8.5679 0.3487 255 40 40
18.1316 -8.5645 0.3487 255 40 40
18.1067 -8.5610 0.3487 255 40 40
18.0817 -8.5575 0.3487 255 40 40
18.0568 -8.5541 0.3487 255 40 40
18.0318 -8.5506 0.3487 255 40 40
18.0068 -8.5471 0.3487 255 40 40
17.9819 -8.5437 0.3487 255 40 40
17.9569 -8.5402 0.3487 255 40 40
17.9319 -8.5367 0.3487 255 40 40
17.9070 -8.5333 0.3487 255 40 40
17.8820 -8.5298 0.3487 255 40 40
17.8571 -8.5263 0.3487 255 40 40
17.8321 -8.5229 0.3487 255 40 40
17.8071 -8.5194 0.3487 255 40 40
17.7822 -8.5159 0.3487 255 40 40
17.7572 -8.5125 0.3487 255 40 40
17.7323 -8.5090 0.3487 255 40 40
17.7073 -8.5055 0.3487 255 40 40
17.6823 -8.5021 0.3487 255 40 40
17.6574 -8.4986 0.3487 255 40 40
17.6324 -8.4951 0.3487 255 40 40
17.6074 -8.4917 0.3487 255 40 40
17.5825 -8.4882 0.3487 255 40 40
17.5575 -8.4847 0.3487 255 40 40
17.5326 -8.4813 0.3487 255 40 40
17.5076 -8.4778 0.3487 255 40 40
17.4826 -8.4743 0.3487 255 40 40
17.4577 -8.4709 0.3487 255 40 40
17.4327 -8.4674 0.3487 255 40 40
17.4077 -8.4639 0.3487 255 40 40
17.3828 -8.4605 0.3487 255 40 40
17.3578 -8.4570 0.3487 255 40 40
17.3329 -8.4536 0.3487 255 40 40
17.3079 -8.4501 0.3487 255 40 40
17.2829 -8.4466 0.3487 255 40 40
17.2580 -8.4432 0.3487 255 40 40
17.2330 -8.4397 0.3487 255 40 40
17.2081 -8.4362 0.3487 255 40 40
17.1831 -8.4328 0.3487 255 40 40
17.1581 -8.4293 0.3487 255 40 40
17.1332 -8.4258 0.3487 255 40 40
17.1082 -8.4224 0.3487 255 40 40
17.0832 -8.4189 0.3487 255 40 40
17.0583 -8.4154 0.3487 255 40 40
17.0333 -8.4120 0.3487 255 40 40
17.0084 -8.4085 0.3487 255 40 40
16.9834 -8.4050 0.3487 255 40 40
16.9584 -8.4016 0.3487 255 40 40
16.9335 -8.3981 0.3487 255 40 40
16.9085 -8.3946 0.3487 255 40 40
16.8836 -8.3912 0.3487 255 40 40
16.8586 -8.3877 0.3487 255 40 40
16.8336 -8.3842 0.3487 255 40 40
16.8087 -8.3808 0.3487 255 40 40
16.7837 -8.3773 0.3487 255 40 40
16.7587 -8.3738 0.3487 255 40 40
16.7338 -8.3704 0.3487 255 40 40
16.7088 -8.3669 0.3487 255 40 40
16.6839 -8.3634 0.3487 255 40 40
16.6589 -8.3600 0.3487 255 40 40
16.6339 -8.3565 0.3487 255 40 40
16.6090 -8.3530 0.3487 255 40 40
16.5840 -8.3496 0.3487 255 40 40
16.5590 -8.3461 0.3487 255 40 40
16.5341 -8.3426 0.3487 255 40 40
16.5091 -8.3392 0.3487 255 40 40
16.4842 -8.3357 0.3487 255 40 40
16.4592 -8.3322 0.3487 255 40 40
16.4342 -8.3288 0.3487 255 40 40
16.4093 -8.3253 0.3487 255 40 40
16.3843 -8.3218 0.3487 255 40 40
16.3594 -8.3184 0.3487 255 40 40
16.3344 -8.3149 0.3487 255 40 40
16.3094 -8.3114 0.3487 255 40 40
16.2845 -8.3080 0.3487 255 40 40
16.2595 -8.3045 0.3487 255 40 40
16.2345 -8.3010 0.3487 255 40 40
16.2096 -8.2976 0.3487 255 40 40
16.2096 -8.2976 0.3487 255 40 40
16.2082 -8.3072 0.3487 255 40 40
16.2069 -8.3168 0.3487 255 40 40
16.2056 -8.3264 0.3487 255 40 40
16.2042 -8.3361 0.3487 255 40 40
16.2029 -8.3457 0.3487 255 40 40
16.2016 -8.3553 0.3487 255 40 40
16.2002 -8.3649 0.3487 255 40 40
16.1989 -8.3746 0.3487 255 40 40
16.1976 -8.3842 0.3487 255 40 40
16.1962 -8.3938 0.3487 255 40 40
16.1949 -8.4034 0.3487 255 40 40
16.1935 -8.4130 0.3487 255 40 40
16.1922 -8.4227 0.3487 255 40 40
16.1909 -8.4323 0.3487 255 40 40
16.1895 -8.4419 0.3487 255 40 40
16.1882 -8.4515 0.3487 255 40 40
16.1869 -8.4612 0.3487 255 40 40
16.1855 -8.4708 0.3487 255 40 40
16.1842 -8.4804 0.3487 255 40 40
16.1829 -8.4900 0.3487 255 40 40
16.1815 -8.4997 0.3487 255 40 40
16.1802 -8.5093 0.3487 255 40 40
16.1788 -8.5189 0.3487 255 40 40
16.1775 -8.5285 0.3487 255 40 40
16.1762 -8.5382 0.3487 255 40 40
16.1748 -8.5478 0.3487 255 40 40
16.1735 -8.5574 0.3487 255 40 40
16.1722 -8.5670 0.3487 255 40 40
16.1708 -8.5766 0.3487 255 40 40
16.1695 -8.5863 0.3487 255 40 40
16.1682 -8.5959 0.3487 255 40 40
16.1668 -8.6055 0.3487 255 40 40
16.1655 -8.6151 0.3487 255 40 40
16.1641 -8.6248 0.3487 255 40 40
16.1628 -8.6344 0.3487 255 40 40
16.1615 -8.6440 0.3487 255 40 40
16.1601 -8.6536 0.3487 255 40 40
16.1588 -8.6633 0.3487 255 40 40
16.1575 -8.6729 0.3487 255 40 40
16.1561 -8.6825 0.3487 255 40 40
16.1548 -8.6921 0.3487 255 40 40
16.1535 -8.7018 0.3487 255 40 40
16.1521 -8.7114 0.3487 255 40 40
16.1508 -8.7210 0.3487 255 40 40
16.1494 -8.7306 0.3487 255 40 40
16.1481 -8.7402 0.3487 255 40 40
16.1468 -8.7499 0.3487 255 40 40
16.1454 -8.7595 0.3487 255 40 40
16.1441 -8.7691 0.3487 255 40 40
16.1428 -8.7787 0.3487 255 40 40
16.1414 -8.7884 0.3487 255 40 40
16.1401 -8.7980 0.3487 255 40 40
16.1388 -8.8076 0.3487 255 40 40
16.1374 -8.8172 0.3487 255 40 40
16.1361 -8.8269 0.3487 255 40 40
16.1347 -8.8365 0.3487 255 40 40
16.1334 -8.8461 0.3487 255 40 40
16.1321 -8.8557 0.3487 255 40 40
16.1307 -8.8653 0.3487 255 40 40
16.1294 -8.8750 0.3487 255 40 40
16.1281 -8.8846 0.3487 255 40 40
16.1267 -8.8942 0.3487 255 40 40
16.1254 -8.9038 0.3487 255 40 40
16.1241 -8.9135 0.3487 255 40 40
16.1227 -8.9231 0.3487 255 40 40
16.1214 -8.9327 0.3487 255 40 40
16.1200 -8.9423 0.3487 255 40 40
16.1187 -8.9520 0.3487 255 40 40
16.1174 -8.9616 0.3487 255 40 40
16.1160 -8.9712 0.3487 255 40 40
16.1147 -8.9808 0.3487 255 40 40
16.1134 -8.9905 0.3487 255 40 40
16.1120 -9.0001 0.3487 255 40 40
16.1107 -9.0097 0.3487 255 40 40
16.1094 -9.0193 0.3487 255 40 40
16.1080 -9.0289 0.3487 255 40 40
16.1067 -9.0386 0.3487 255 40 40
16.1053 -9.0482 0.3487 255 40 40
16.1040 -9.0578 0.3487 255 40 40
16.1027 -9.0674 0.3487 255 40 40
16.1013 -9.0771 0.3487 255 40 40
16.1000 -9.0867 0.3487 255 40 40
16.0987 -9.0963 0.3487 255 40 40
16.0973 -9.1059 0.3487 255 40 40
16.0960 -9.1156 0.3487 255 40 40
16.0947 -9.1252 0.3487 255 40 40
16.0933 -9.1348 0.3487 255 40 40
16.0920 -9.1444 0.3487 255 40 40
16.0906 -9.1541 0.3487 255 40 40
16.0893 -9.1637 0.3487 255 40 40
16.0880 -9.1733 0.3487 255 40 40
16.0866 -9.1829 0.3487 255 40 40
16.0853 -9.1925 0.3487 255 40 40
16.0840 -9.2022 0.3487 255 40 40
16.0826 -9.2118 0.3487 255 40 40
16.0813 -9.2214 0.3487 255 40 40
16.0800 -9.2310 0.3487 255 40 40
16.0786 -9.2407 0.3487 255 40 40
16.0773 -9.2503 0.3487 255 40 40
16.0759 -9.2599 0.3487 255 40 40
16.0746 -9.2695 0.3487 255 40 40
16.0733 -9.2792 0.3487 255 40 40
16.0719 -9.2888 0.3487 255 40 40
16.0706 -9.2984 0.3487 255 40 40
16.0693 -9.3080 0.3487 255 40 40
16.0679 -9.3177 0.3487 255 40 40
16.0666 -9.3273 0.3487 255 40 40
16.0653 -9.3369 0.3487 255 40 40
16.0639 -9.3465 0.3487 255 40 40
16.0626 -9.3561 0.3487 255 40 40
16.0612 -9.3658 0.3487 255 40 40
16.0599 -9.3754 0.3487 255 40 40
16.0586 -9.3850 0.3487 255 40 40
16.0572 -9.3946 0.3487 255 40 40
16.0559 -9.4043 0.3487 255 40 40
16.0546 -9.4139 0.3487 255 40 40
16.0532 -9.4235 0.3487 255 40 40
16.0519 -9.4331 0.3487 255 40 40
16.0506 -9.4428 0.3487 255 40 40
16.0492 -9.4524 0.3487 255 40 40
16.0479 -9.4620 0.3487 255 40 40
16.0465 -9.4716 0.3487 255 40 40
16.0452 -9.4813 0.3487 255 40 40
16.0439 -9.4909 0.3487 255 40 40
16.0425 -9.5005 0.3487 255 40 40
16.0412 -9.5101 0.3487 255 40 40
16.0399 -9.5197 0.3487 255 40 40
16.0385 -9.5294 0.3487 255 40 40
16.0372 -9.5390 0.3487 255 40 40
16.0359 -9.5486 0.3487 255 40 40
16.0345 -9.5582 0.3487 255 40 40
16.0332 -9.5679 0.3487 255 40 40
16.0318 -9.5775 0.3487 255 40 40
16.0305 -9.5871 0.3487 255 40 40
16.0292 -9.5967 0.3487 255 40 40
16.0278 -9.6064 0.3487 255 40 40
16.0265 -9.6160 0.3487 255 40 40
16.0252 -9.6256 0.3487 255 40 40
16.0238 -9.6352 0.3487 255 40 40
16.0225 -9.6449 0.3487 255 40 40
16.0212 -9.6545 0.3487 255 40 40
16.0198 -9.6641 0.3487 255 40 40
16.0185 -9.6737 0.3487 255 40 40
16.0171 -9.6833 0.3487 255 40 40
16.0158 -9.6930 0.3487 255 40 40
16.0145 -9.7026 0.3487 255 40 40
16.0131 -9.7122 0.3487 255 40 40
16.0118 -9.7218 0.3487 255 40 40
16.0105 -9.7315 0.3487 255 40 40
16.0091 -9.7411 0.3487 255 40 40
16.0078 -9.7507 0.3487 255 40 40
16.0065 -9.7603 0.3487 255 40 40
16.0051 -9.7700 0.3487 255 40 40
16.0038 -9.7796 0.3487 255 40 40
16.0024 -9.7892 0.3487 255 40 40
16.0011 -9.7988 0.3487 255 40 40
15.9998 -9.8084 0.3487 255 40 40
15.9984 -9.8181 0.3487 255 40 40
15.9971 -9.8277 0.3487 255 40 40
15.9958 -9.8373 0.3487 255 40 40
15.9944 -9.8469 0.3487 255 40 40
15.9931 -9.8566 0.3487 255 40 40
15.9918 -9.8662 0.3487 255 40 40
15.9904 -9.8758 0.3487 255 40 40
15.9891 -9.8854 0.3487 255 40 40
15.9891 -9.8854 1.9808 255 40 40
16.0140 -9.8889 1.9808 255 40 40
16.0390 -9.8924 1.9808 255 40 40
16.0640 -9.8958 1.9808 255 40 40
16.0889 -9.8993 1.9808 255 40 40
16.1139 -9.9028 1.9808 255 40 40
16.1389 -9.9062 1.9808 255 40 40
16.1638 -9.9097 1.9808 255 40 40
16.1888 -9.9132 1.9808 255 40 40
16.2137 -9.9166 1.9808 255 40 40
16.2387 -9.9201 1.9808 255 40 40
16.2637 -9.9236 1.9808 255 40 40
16.2886 -9.9270 1.9808 255 40 40
16.3136 -9.9305 1.9808 255 40 40
16.3385 -9.9340 1.9808 255 40 40
16.3635 -9.9374 1.9808 255 40 40
16.3885 -9.9409 1.9808 255 40 40
16.4134 -9.9444 1.9808 255 40 40
16.4384 -9.9478 1.9808 255 40 40
16.4634 -9.9513 1.9808 255 40 40
16.4883 -9.9548 1.9808 255 40 40
16.5133 -9.9582 1.9808 255 40 40
16.5382 -9.9617 1.9808 255 40 40
16.5632 -9.9652 1.9808 255 40 40
16.5882 -9.9686 1.9808 255 40 40
16.6131 -9.9721 1.9808 255 40 40
16.6381 -9.9756 1.9808 255 40 40
16.6631 -9.9790 1.9808 255 40 40
16.6880 -9.9825 1.9808 255 40 40
16.7130 -9.9860 1.9808 255 40 40
16.7379 -9.9894 1.9808 255 40 40
16.7629 -9.9929 1.9808 255 40 40
16.7879 -9.9964 1.9808 255 40 40
16.8128 -9.9998 1.9808 255 40 40
16.8378 -10.0033 1.9808 255 40 40
16.8627 -10.0068 1.9808 255 40 40
16.8877 -10.0102 1.9808 255 40 40
16.9127 -10.0137 1.9808 255 40 40
16.9376 -10.0172 1.9808 255 40 40
16.9626 -10.0206 1.9808 255 40 40
16.9876 -10.0241 1.9808 255 40 40
17.0125 -10.0276 1.9808 255 40 40
17.0375 -10.0310 1.9808 255 40 40
17.0624 -10.0345 1.9808 255 40 40
17.0874 -10.0380 1.9808 255 40 40
17.1124 -10.0414 1.9808 255 40 40
17.1373 -10.0449 1.9808 255 40 40
17.1623 -10.0484 1.9808 255 40 40
17.1872 -10.0518 1.9808 255 40 40
17.2122 -10.0553 1.9808 255 40 40
17.2372 -10.0588 1.9808 255 40 40
17.2621 -10.0622 1.9808 255 40 40
17.2871 -10.0657 1.9808 255 40 40
17.3121 -10.0692 1.9808 255 40 40
17.3370 -10.0726 1.9808 255 40 40
17.3620 -10.0761 1.9808 255 40 40
17.3869 -10.0796 1.9808 255 40 40
17.4119 -10.0830 1.9808 255 40 40
17.4369 -10.0865 1.9808 255 40 40
17.4618 -10.0899 1.9808 255 40 40
17.4868 -10.0934 1.9808 255 40 40
17.5118 -10.0969 1.9808 255 40 40
17.5367 -10.1003 1.9808 255 40 40
17.5617 -10.1038 1.9808 255 40 40
17.5866 -10.1073 1.9808 255 40 40
17.6116 -10.1107 1.9808 255 40 40
17.6366 -10.1142 1.9808 255 40 40
17.6615 -10.1177 1.9808 255 40 40
17.6865 -10.1211 1.9808 255 40 40
17.7114 -10.1246 1.9808 255 40 40
17.7364 -10.1281 1.9808 255 40 40
17.7614 -10.1315 1.9808 255 40 40
17.7863 -10.1350 1.9808 255 40 40
17.8113 -10.1385 1.9808 255 40 40
17.8363 -10.1419 1.9808 255 40 40
17.8612 -10.1454 1.9808 255 40 40
17.8862 -10.1489 1.9808 255 40 40
17.9111 -10.1523 1.9808 255 40 40
17.9361 -10.1558 1.9808 255 40 40
17.9611 -10.1593 1.9808 255 40 40
17.9860 -10.1627 1.9808 255 40 40
18.0110 -10.1662 1.9808 255 40 40
18.0359 -10.1697 1.9808 255 40 40
18.0609 -10.1731 1.9808 255 40 40
18.0859 -10.1766 1.9808 255 40 40
18.1108 -10.1801 1.9808 255 40 40
18.1358 -10.1835 1.9808 255 40 40
18.1608 -10.1870 1.9808 255 40 40
18.1857 -10.1905 1.9808 255 40 40
18.2107 -10.1939 1.9808 255 40 40
18.2356 -10.1974 1.9808 255 40 40
18.2606 -10.2009 1.9808 255 40 40
18.2856 -10.2043 1.9808 255 40 40
18.3105 -10.2078 1.9808 255 40 40
18.3355 -10.2113 1.9808 255 40 40
18.3604 -10.2147 1.9808 255 40 40
18.3854 -10.2182 1.9808 255 40 40
18.4104 -10.2217 1.9808 255 40 40
18.4353 -10.2251 1.9808 255 40 40
18.4603 -10.2286 1.9808 255 40 40
18.4853 -10.2321 1.9808 255 40 40
18.5102 -10.2355 1.9808 255 40 40
18.5352 -10.2390 1.9808 255 40 40
18.5601 -10.2425 1.9808 255 40 40
18.5851 -10.2459 1.9808 255 40 40
18.6101 -10.2494 1.9808 255 40 40
18.6350 -10.2529 1.9808 255 40 40
18.6600 -10.2563 1.9808 255 40 40
18.6850 -10.2598 1.9808 255 40 40
18.7099 -10.2633 1.9808 255 40 40
18.7349 -10.2667 1.9808 255 40 40
18.7598 -10.2702 1.9808 255 40 40
18.7848 -10.2737 1.9808 255 40 40
18.8098 -10.2771 1.9808 255 40 40
18.8347 -10.2806 1.9808 255 40 40
18.8597 -10.2841 1.9808 255 40 40
18.8846 -10.2875 1.9808 255 40 40
18.9096 -10.2910 1.9808 255 40 40
18.9346 -10.2945 1.9808 255 40 40
18.9595 -10.2979 1.9808 255 40 40
18.9845 -10.3014 1.9808 255 40 40
19.0095 -10.3049 1.9808 255 40 40
19.0344 -10.3083 1.9808 255 40 40
19.0594 -10.3118 1.9808 255 40 40
19.0843 -10.3153 1.9808 255 40 40
19.1093 -10.3187 1.9808 255 40 40
19.1343 -10.3222 1.9808 255 40 40
19.1592 -10.3257 1.9808 255 40 40
19.1842 -10.3291 1.9808 255 40 40
19.2091 -10.3326 1.9808 255 40 40
19.2341 -10.3361 1.9808 255 40 40
19.2591 -10.3395 1.9808 255 40 40
19.2840 -10.3430 1.9808 255 40 40
19.3090 -10.3465 1.9808 255 40 40
19.3340 -10.3499 1.9808 255 40 40
19.3589 -10.3534 1.9808 255 40 40
19.3839 -10.3569 1.9808 255 40 40
19.4088 -10.3603 1.9808 255 40 40
19.4338 -10.3638 1.9808 255 40 40
19.4588 -10.3673 1.9808 255 40 40
19.4837 -10.3707 1.9808 255 40 40
19.5087 -10.3742 1.9808 255 40 40
19.5337 -10.3777 1.9808 255 40 40
19.5586 -10.3811 1.9808 255 40 40
19.5836 -10.3846 1.9808 255 40 40
19.6085 -10.3881 1.9808 255 40 40
19.6335 -10.3915 1.9808 255 40 40
19.6585 -10.3950 1.9808 255 40 40
19.6834 -10.3985 1.9808 255 40 40
19.7084 -10.4019 1.9808 255 40 40
19.7333 -10.4054 1.9808 255 40 40
19.7583 -10.4089 1.9808 255 40 40
19.7833 -10.4123 1.9808 255 40 40
19.8082 -10.4158 1.9808 255 40 40
19.8332 -10.4193 1.9808 255 40 40
19.8582 -10.4227 1.9808 255 40 40
19.8831 -10.4262 1.9808 255 40 40
19.9081 -10.4296 1.9808 255 40 40
19.9330 -10.4331 1.9808 255 40 40
19.9580 -10.4366 1.9808 255 40 40
19.9830 -10.4400 1.9808 255 40 40
20.0079 -10.4435 1.9808 255 40 40
20.0329 -10.4470 1.9808 255 40 40
20.0578 -10.4504 1.9808 255 40 40
20.0828 -10.4539 1.9808 255 40 40
20.1078 -10.4574 1.9808 255 40 40
20.1078 -10.4574 1.9808 255 40 40
20.1091 -10.4478 1.9808 255 40 40
20.1104 -10.4381 1.9808 255 40 40
20.1118 -10.4285 1.9808 255 40 40
20.1131 -10.4189 1.9808 255 40 40
20.1145 -10.4093 1.9808 255 40 40
20.1158 -10.3996 1.9808 255 40 40
20.1171 -10.3900 1.9808 255 40 40
20.1185 -10.3804 1.9808 255 40 40
20.1198 -10.3708 1.9808 255 40 40
20.1211 -10.3611 1.9808 255 40 40
20.1225 -10.3515 1.9808 255 40 40
20.1238 -10.3419 1.9808 255 40 40
20.1251 -10.3323 1.9808 255 40 40
20.1265 -10.3227 1.9808 255 40 40
20.1278 -10.3130 1.9808 255 40 40
20.1292 -10.3034 1.9808 255 40 40
20.1305 -10.2938 1.9808 255 40 40
20.1318 -10.2842 1.9808 255 40 40
20.1332 -10.2745 1.9808 255 40 40
20.1345 -10.2649 1.9808 255 40 40
20.1358 -10.2553 1.9808 255 40 40
20.1372 -10.2457 1.9808 255 40 40
20.1385 -10.2360 1.9808 255 40 40
20.1398 -10.2264 1.9808 255 40 40
20.1412 -10.2168 1.9808 255 40 40
20.1425 -10.2072 1.9808 255 40 40
20.1439 -10.1975 1.9808 255 40 40
20.1452 -10.1879 1.9808 255 40 40
20.1465 -10.1783 1.9808 255 40 40
20.1479 -10.1687 1.9808 255 40 40
20.1492 -10.1591 1.9808 255 40 40
20.1505 -10.1494 1.9808 255 40 40
20.1519 -10.1398 1.9808 255 40 40
20.1532 -10.1302 1.9808 255 40 40
20.1545 -10.1206 1.9808 255 40 40
20.1559 -10.1109 1.9808 255 40 40
20.1572 -10.1013 1.9808 255 40 40
20.1586 -10.0917 1.9808 255 40 40
20.1599 -10.0821 1.9808 255 40 40
20.1612 -10.0724 1.9808 255 40 40
20.1626 -10.0628 1.9808 255 40 40
20.1639 -10.0532 1.9808 255 40 40
20.1652 -10.0436 1.9808 255 40 40
20.1666 -10.0339 1.9808 255 40 40
20.1679 -10.0243 1.9808 255 40 40
20.1692 -10.0147 1.9808 255 40 40
20.1706 -10.0051 1.9808 255 40 40
20.1719 -9.9955 1.9808 255 40 40
20.1733 -9.9858 1.9808 255 40 40
20.1746 -9.9762 1.9808 255 40 40
20.1759 -9.9666 1.9808 255 40 40
20.1773 -9.9570 1.9808 255 40 40
20.1786 -9.9473 1.9808 255 40 40
20.1799 -9.9377 1.9808 255 40 40
20.1813 -9.9281 1.9808 255 40 40
20.1826 -9.9185 1.9808 255 40 40
20.1839 -9.9088 1.9808 255 40 40
20.1853 -9.8992 1.9808 255 40 40
20.1866 -9.8896 1.9808 255 40 40
20.1880 -9.8800 1.9808 255 40 40
20.1893 -9.8703 1.9808 255 40 40
20.1906 -9.8607 1.9808 255 40 40
20.1920 -9.8511 1.9808 255 40 40
20.1933 -9.8415 1.9808 255 40 40
20.1946 -9.8319 1.9808 255 40 40
20.1960 -9.8222 1.9808 255 40 40
20.1973 -9.8126 1.9808 255 40 40
20.1986 -9.8030 1.9808 255 40 40
20.2000 -9.7934 1.9808 255 40 40
20.2013 -9.7837 1.9808 255 40 40
20.2027 -9.7741 1.9808 255 40 40
20.2040 -9.7645 1.9808 255 40 40
20.2053 -9.7549 1.9808 255 40 40
20.2067 -9.7452 1.9808 255 40 40
20.2080 -9.7356 1.9808 255 40 40
20.2093 -9.7260 1.9808 255 40 40
20.2107 -9.7164 1.9808 255 40 40
20.2120 -9.7067 1.9808 255 40 40
20.2133 -9.6971 1.9808 255 40 40
20.2147 -9.6875 1.9808 255 40 40
20.2160 -9.6779 1.9808 255 40 40
20.2174 -9.6683 1.9808 255 40 40
20.2187 -9.6586 1.9808 255 40 40
20.2200 -9.6490 1.9808 255 40 40
20.2214 -9.6394 1.9808 255 40 40
20.2227 -9.6298 1.9808 255 40 40
20.2240 -9.6201 1.9808 255 40 40
20.2254 -9.6105 1.9808 255 40 40
20.2267 -9.6009 1.9808 255 40 40
20.2280 -9.5913 1.9808 255 40 40
20.2294 -9.5816 1.9808 255 40 40
20.2307 -9.5720 1.9808 255 40 40
20.2321 -9.5624 1.9808 255 40 40
20.2334 -9.5528 1.9808 255 40 40
20.2347 -9.5432 1.9808 255 40 40
20.2361 -9.5335 1.9808 255 40 40
20.2374 -9.5239 1.9808 255 40 40
20.2387 -9.5143 1.9808 255 40 40
20.2401 -9.5047 1.9808 255 40 40
20.2414 -9.4950 1.9808 255 40 40
20.2427 -9.4854 1.9808 255 40 40
20.2441 -9.4758 1.9808 255 40 40
20.2454 -9.4662 1.9808 255 40 40
20.2468 -9.4565 1.9808 255 40 40
20.2481 -9.4469 1.9808 255 40 40
20.2494 -9.4373 1.9808 255 40 40
20.2508 -9.4277 1.9808 255 40 40
20.2521 -9.4180 1.9808 255 40 40
20.2534 -9.4084 1.9808 255 40 40
20.2548 -9.3988 1.9808 255 40 40
20.2561 -9.3892 1.9808 255 40 40
20.2574 -9.3796 1.9808 255 40 40
20.2588 -9.3699 1.9808 255 40 40
20.2601 -9.3603 1.9808 255 40 40
20.2615 -9.3507 1.9808 255 40 40
20.2628 -9.3411 1.9808 255 40 40
20.2641 -9.3314 1.9808 255 40 40
20.2655 -9.3218 1.9808 255 40 40
20.2668 -9.3122 1.9808 255 40 40
20.2681 -9.3026 1.9808 255 40 40
20.2695 -9.2929 1.9808 255 40 40
20.2708 -9.2833 1.9808 255 40 40
20.2721 -9.2737 1.9808 255 40 40
20.2735 -9.2641 1.9808 255 40 40
20.2748 -9.2544 1.9808 255 40 40
20.2762 -9.2448 1.9808 255 40 40
20.2775 -9.2352 1.9808 255 40 40
20.2788 -9.2256 1.9808 255 40 40
20.2802 -9.2160 1.9808 255 40 40
20.2815 -9.2063 1.9808 255 40 40
20.2828 -9.1967 1.9808 255 40 40
20.2842 -9.1871 1.9808 255 40 40
20.2855 -9.1775 1.9808 255 40 40
20.2868 -9.1678 1.9808 255 40 40
20.2882 -9.1582 1.9808 255 40 40
20.2895 -9.1486 1.9808 255 40 40
20.2909 -9.1390 1.9808 255 40 40
20.2922 -9.1293 1.9808 255 40 40
20.2935 -9.1197 1.9808 255 40 40
20.2949 -9.1101 1.9808 255 40 40
20.2962 -9.1005 1.9808 255 40 40
20.2975 -9.0908 1.9808 255 40 40
20.2989 -9.0812 1.9808 255 40 40
20.3002 -9.0716 1.9808 255 40 40
20.3015 -9.0620 1.9808 255 40 40
20.3029 -9.0524 1.9808 255 40 40
20.3042 -9.0427 1.9808 255 40 40
20.3056 -9.0331 1.9808 255 40 40
20.3069 -9.0235 1.9808 255 40 40
20.3082 -9.0139 1.9808 255 40 40
20.3096 -9.0042 1.9808 255 40 40
20.3109 -8.9946 1.9808 255 40 40
20.3122 -8.9850 1.9808 255 40 40
20.3136 -8.9754 1.9808 255 40 40
20.3149 -8.9657 1.9808 255 40 40
20.3162 -8.9561 1.9808 255 40 40
20.3176 -8.9465 1.9808 255 40 40
20.3189 -8.9369 1.9808 255 40 40
20.3203 -8.9272 1.9808 255 40 40
20.3216 -8.9176 1.9808 255 40 40
20.3229 -8.9080 1.9808 255 40 40
20.3243 -8.8984 1.9808 255 40 40
20.3256 -8.8888 1.9808 255 40 40
20.3269 -8.8791 1.9808 255 40 40
20.3283 -8.8695 1.9808 255 40 40
20.3283 -8.8695 1.9808 255 40 40
20.3033 -8.8660 1.9808 255 40 40
20.2783 -8.8626 1.9808 255 40 40
20.2534 -8.8591 1.9808 255 40 40
20.2284 -8.8556 1.9808 255 40 40
20.2035 -8.8522 1.9808 255 40 40
20.1785 -8.8487 1.9808 255 40 40
20.1535 -8.8452 1.9808 255 40 40
20.1286 -8.8418 1.9808 255 40 40
20.1036 -8.8383 1.9808 255 40 40
20.0787 -8.8348 1.9808 255 40 40
20.0537 -8.8314 1.9808 255 40 40
20.0287 -8.8279 1.9808 255 40 40
20.0038 -8.8244 1.9808 255 40 40
19.9788 -8.8210 1.9808 255 40 40
19.9538 -8.8175 1.9808 255 40 40
19.9289 -8.8140 1.9808 255 40 40
19.9039 -8.8106 1.9808 255 40 40
19.8790 -8.8071 1.9808 255 40 40
19.8540 -8.8036 1.9808 255 40 40
19.8290 -8.8002 1.9808 255 40 40
19.8041 -8.7967 1.9808 255 40 40
19.7791 -8.7933 1.9808 255 40 40
19.7542 -8.7898 1.9808 255 40 40
19.7292 -8.7863 1.9808 255 40 40
19.7042 -8.7829 1.9808 255 40 40
19.6793 -8.7794 1.9808 255 40 40
19.6543 -8.7759 1.9808 255 40 40
19.6293 -8.7725 1.9808 255 40 40
19.6044 -8.7690 1.9808 255 40 40
19.5794 -8.7655 1.9808 255 40 40
19.5545 -8.7621 1.9808 255 40 40
19.5295 -8.7586 1.9808 255 40 40
19.5045 -8.7551 1.9808 255 40 40
19.4796 -8.7517 1.9808 255 40 40
19.4546 -8.7482 1.9808 255 40 40
19.4296 -8.7447 1.9808 255 40 40
19.4047 -8.7413 1.9808 255 40 40
19.3797 -8.7378 1.9808 255 40 40
19.3548 -8.7343 1.9808 255 40 40
19.3298 -8.7309 1.9808 255 40 40
19.3048 -8.7274 1.9808 255 40 40
19.2799 -8.7239 1.9808 255 40 40
19.2549 -8.7205 1.9808 255 40 40
19.2300 -8.7170 1.9808 255 40 40
19.2050 -8.7135 1.9808 255 40 40
19.1800 -8.7101 1.9808 255 40 40
19.1551 -8.7066 1.9808 255 40 40
19.1301 -8.7031 1.9808 255 40 40
19.1051 -8.6997 1.9808 255 40 40
19.0802 -8.6962 1.9808 255 40 40
19.0552 -8.6927 1.9808 255 40 40
19.0303 -8.6893 1.9808 255 40 40
19.0053 -8.6858 1.9808 255 40 40
18.9803 -8.6823 1.9808 255 40 40
18.9554 -8.6789 1.9808 255 40 40
18.9304 -8.6754 1.9808 255 40 40
18.9055 -8.6719 1.9808 255 40 40
18.8805 -8.6685 1.9808 255 40 40
18.8555 -8.6650 1.9808 255 40 40
18.8306 -8.6615 1.9808 255 40 40
18.8056 -8.6581 1.9808 255 40 40
18.7806 -8.6546 1.9808 255 40 40
18.7557 -8.6511 1.9808 255 40 40
18.7307 -8.6477 1.9808 255 40 40
18.7058 -8.6442 1.9808 255 40 40
18.6808 -8.6407 1.9808 255 40 40
18.6558 -8.6373 1.9808 255 40 40
18.6309 -8.6338 1.9808 255 40 40
18.6059 -8.6303 1.9808 255 40 40
18.5809 -8.6269 1.9808 255 40 40
18.5560 -8.6234 1.9808 255 40 40
18.5310 -8.6199 1.9808 255 40 40
18.5061 -8.6165 1.9808 255 40 40
18.4811 -8.6130 1.9808 255 40 40
18.4561 -8.6095 1.9808 255 40 40
18.4312 -8.6061 1.9808 255 40 40
18.4062 -8.6026 1.9808 255 40 40
18.3813 -8.5991 1.9808 255 40 40
18.3563 -8.5957 1.9808 255 40 40
18.3313 -8.5922 1.9808 255 40 40
18.3064 -8.5887 1.9808 255 40 40
18.2814 -8.5853 1.9808 255 40 40
18.2564 -8.5818 1.9808 255 40 40
18.2315 -8.5783 1.9808 255 40 40
18.2065 -8.5749 1.9808 255 40 40
18.1816 -8.5714 1.9808 255 40 40
18.1566 -8.5679 1.9808 255 40 40
18.1316 -8.5645 1.9808 255 40 40
18.1067 -8.5610 1.9808 255 40 40
18.0817 -8.5575 1.9808 255 40 40
18.0568 -8.5541 1.9808 255 40 40
18.0318 -8.5506 1.9808 255 40 40
18.0068 -8.5471 1.9808 255 40 40
17.9819 -8.5437 1.9808 255 40 40
17.9569 -8.5402 1.9808 255 40 40
17.9319 -8.5367 1.9808 255 40 40
17.9070 -8.5333 1.9808 255 40 40
17.8820 -8.5298 1.9808 255 40 40
17.8571 -8.5263 1.9808 255 40 40
17.8321 -8.5229 1.9808 255 40 40
17.8071 -8.5194 1.9808 255 40 40
17.7822 -8.5159 1.9808 255 40 40
17.7572 -8.5125 1.9808 255 40 40
17.7323 -8.5090 1.9808 255 40 40
17.7073 -8.5055 1.9808 255 40 40
17.6823 -8.5021 1.9808 255 40 40
17.6574 -8.4986 1.9808 255 40 40
17.6324 -8.4951 1.9808 255 40 40
17.6074 -8.4917 1.9808 255 40 40
17.5825 -8.4882 1.9808 255 40 40
17.5575 -8.4847 1.9808 255 40 40
17.5326 -8.4813 1.9808 255 40 40
17.5076 -8.4778 1.9808 255 40 40
17.4826 -8.4743 1.9808 255 40 40
17.4577 -8.4709 1.9808 255 40 40
17.4327 -8.4674 1.9808 255 40 40
17.4077 -8.4639 1.9808 255 40 40
17.3828 -8.4605 1.9808 255 40 40
17.3578 -8.4570 1.9808 255 40 40
17.3329 -8.4536 1.9808 255 40 40
17.3079 -8.4501 1.9808 255 40 40
17.2829 -8.4466 1.9808 255 40 40
17.2580 -8.4432 1.9808 255 40 40
17.2330 -8.4397 1.9808 255 40 40
17.2081 -8.4362 1.9808 255 40 40
17.1831 -8.4328 1.9808 255 40 40
17.1581 -8.4293 1.9808 255 40 40
17.1332 -8.4258 1.9808 255 40 40
17.1082 -8.4224 1.9808 255 40 40
17.0832 -8.4189 1.9808 255 40 40
17.0583 -8.4154 1.9808 255 40 40
17.0333 -8.4120 1.9808 255 40 40
17.0084 -8.4085 1.9808 255 40 40
16.9834 -8.4050 1.9808 255 40 40
16.9584 -8.4016 1.9808 255 40 40
16.9335 -8.3981 1.9808 255 40 40
16.9085 -8.3946 1.9808 255 40 40
16.8836 -8.3912 1.9808 255 40 40
16.8586 -8.3877 1.9808 255 40 40
16.8336 -8.3842 1.9808 255 40 40
16.8087 -8.3808 1.9808 255 40 40
16.7837 -8.3773 1.9808 255 40 40
16.7587 -8.3738 1.9808 255 40 40
16.7338 -8.3704 1.9808 255 40 40
16.7088 -8.3669 1.9808 255 40 40
16.6839 -8.3634 1.9808 255 40 40
16.6589 -8.3600 1.9808 255 40 40
16.6339 -8.3565 1.9808 255 40 40
16.6090 -8.3530 1.9808 255 40 40
16.5840 -8.3496 1.9808 255 40 40
16.5590 -8.3461 1.9808 255 40 40
16.5341 -8.3426 1.9808 255 40 40
16.5091 -8.3392 1.9808 255 40 40
16.4842 -8.3357 1.9808 255 40 40
16.4592 -8.3322 1.9808 255 40 40
16.4342 -8.3288 1.9808 255 40 40
16.4093 -8.3253 1.9808 255 40 40
16.3843 -8.3218 1.9808 255 40 40
16.3594 -8.3184 1.9808 255 40 40
16.3344 -8.3149 1.9808 255 40 40
16.3094 -8.3114 1.9808 255 40 40
16.2845 -8.3080 1.9808 255 40 40
16.2595 -8.3045 1.9808 255 40 40
16.2345 -8.3010 1.9808 255 40 40
16.2096 -8.2976 1.9808 255 40 40
16.2096 -8.2976 1.9808 255 40 40
16.2082 -8.3072 1.9808 255 40 40
16.2069 -8.3168 1.9808 255 40 40
16.2056 -8.3264 1.9808 255 40 40
16.2042 -8.3361 1.9808 255 40 40
16.2029 -8.3457 1.9808 255 40 40
16.2016 -8.3553 1.9808 255 40 40
16.2002 -8.3649 1.9808 255 40 40
16.1989 -8.3746 1.9808 255 40 40
16.1976 -8.3842 1.9808 255 40 40
16.1962 -8.3938 1.9808 255 40 40
16.1949 -8.4034 1.9808 255 40 40
16.1935 -8.4130 1.9808 255 40 40
16.1922 -8.4227 1.9808 255 40 40
16.1909 -8.4323 1.9808 255 40 40
16.1895 -8.4419 1.9808 255 40 40
16.1882 -8.4515 1.9808 255 40 40
16.1869 -8.4612 1.9808 255 40 40
16.1855 -8.4708 1.9808 255 40 40
16.1842 -8.4804 1.9808 255 40 40
16.1829 -8.4900 1.9808 255 40 40
16.1815 -8.4997 1.9808 255 40 40
16.1802 -8.5093 1.9808 255 40 40
16.1788 -8.5189 1.9808 255 40 40
16.1775 -8.5285 1.9808 255 40 40
16.1762 -8.5382 1.9808 255 40 40
16.1748 -8.5478 1.9808 255 40 40
16.1735 -8.5574 1.9808 255 40 40
16.1722 -8.5670 1.9808 255 40 40
16.1708 -8.5766 1.9808 255 40 40
16.1695 -8.5863 1.9808 255 40 40
16.1682 -8.5959 1.9808 255 40 40
16.1668 -8.6055 1.9808 255 40 40
16.1655 -8.6151 1.9808 255 40 40
16.1641 -8.6248 1.9808 255 40 40
16.1628 -8.6344 1.9808 255 40 40
16.1615 -8.6440 1.9808 255 40 40
16.1601 -8.6536 1.9808 255 40 40
16.1588 -8.6633 1.9808 255 40 40
16.1575 -8.6729 1.9808 255 40 40
16.1561 -8.6825 1.9808 255 40 40
16.1548 -8.6921 1.9808 255 40 40
16.1535 -8.7018 1.9808 255 40 40
16.1521 -8.7114 1.9808 255 40 40
16.1508 -8.7210 1.9808 255 40 40
16.1494 -8.7306 1.9808 255 40 40
16.1481 -8.7402 1.9808 255 40 40
16.1468 -8.7499 1.9808 255 40 40
16.1454 -8.7595 1.9808 255 40 40
16.1441 -8.7691 1.9808 255 40 40
16.1428 -8.7787 1.9808 255 40 40
16.1414 -8.7884 1.9808 255 40 40
16.1401 -8.7980 1.9808 255 40 40
16.1388 -8.8076 1.9808 255 40 40
16.1374 -8.8172 1.9808 255 40 40
16.1361 -8.8269 1.9808 255 40 40
16.1347 -8.8365 1.9808 255 40 40
16.1334 -8.8461 1.9808 255 40 40
16.1321 -8.8557 1.9808 255 40 40
16.1307 -8.8653 1.9808 255 40 40
16.1294 -8.8750 1.9808 255 40 40
16.1281 -8.8846 1.9808 255 40 40
16.1267 -8.8942 1.9808 255 40 40
16.1254 -8.9038 1.9808 255 40 40
16.1241 -8.9135 1.9808 255 40 40
16.1227 -8.9231 1.9808 255 40 40
16.1214 -8.9327 1.9808 255 40 40
16.1200 -8.9423 1.9808 255 40 40
16.1187 -8.9520 1.9808 255 40 40
16.1174 -8.9616 1.9808 255 40 40
16.1160 -8.9712 1.9808 255 40 40
16.1147 -8.9808 1.9808 255 40 40
16.1134 -8.9905 1.9808 255 40 40
16.1120 -9.0001 1.9808 255 40 40
16.1107 -9.0097 1.9808 255 40 40
16.1094 -9.0193 1.9808 255 40 40
16.1080 -9.0289 1.9808 255 40 40
16.1067 -9.0386 1.9808 255 40 40
16.1053 -9.0482 1.9808 255 40 40
16.1040 -9.0578 1.9808 255 40 40
16.1027 -9.0674 1.9808 255 40 40
16.1013 -9.0771 1.9808 255 40 40
16.1000 -9.0867 1.9808 255 40 40
16.0987 -9.0963 1.9808 255 40 40
16.0973 -9.1059 1.9808 255 40 40
16.0960 -9.1156 1.9808 255 40 40
16.0947 -9.1252 1.9808 255 40 40
16.0933 -9.1348 1.9808 255 40 40
16.0920 -9.1444 1.9808 255 40 40
16.0906 -9.1541 1.9808 255 40 40
16.0893 -9.1637 1.9808 255 40 40
16.0880 -9.1733 1.9808 255 40 40
16.0866 -9.1829 1.9808 255 40 40
16.0853 -9.1925 1.9808 255 40 40
16.0840 -9.2022 1.9808 255 40 40
16.0826 -9.2118 1.9808 255 40 40
16.0813 -9.2214 1.9808 255 40 40
16.0800 -9.2310 1.9808 255 40 40
16.0786 -9.2407 1.9808 255 40 40
16.0773 -9.2503 1.9808 255 40 40
16.0759 -9.2599 1.9808 255 40 40
16.0746 -9.2695 1.9808 255 40 40
16.0733 -9.2792 1.9808 255 40 40
16.0719 -9.2888 1.9808 255 40 40
16.0706 -9.2984 1.9808 255 40 40
16.0693 -9.3080 1.9808 255 40 40
16.0679 -9.3177 1.9808 255 40 40
16.0666 -9.3273 1.9808 255 40 40
16.0653 -9.3369 1.9808 255 40 40
16.0639 -9.3465 1.9808 255 40 40
16.0626 -9.3561 1.9808 255 40 40
16.0612 -9.3658 1.9808 255 40 40
16.0599 -9.3754 1.9808 255 40 40
16.0586 -9.3850 1.9808 255 40 40
16.0572 -9.3946 1.9808 255 40 40
16.0559 -9.4043 1.9808 255 40 40
16.0546 -9.4139 1.9808 255 40 40
16.0532 -9.4235 1.9808 255 40 40
16.0519 -9.4331 1.9808 255 40 40
16.0506 -9.4428 1.9808 255 40 40
16.0492 -9.4524 1.9808 255 40 40
16.0479 -9.4620 1.9808 255 40 40
16.0465 -9.4716 1.9808 255 40 40
16.0452 -9.4813 1.9808 255 40 40
16.0439 -9.4909 1.9808 255 40 40
16.0425 -9.5005 1.9808 255 40 40
16.0412 -9.5101 1.9808 255 40 40
16.0399 -9.5197 1.9808 255 40 40
16.0385 -9.5294 1.9808 255 40 40
16.0372 -9.5390 1.9808 255 40 40
16.0359 -9.5486 1.9808 255 40 40
16.0345 -9.5582 1.9808 255 40 40
16.0332 -9.5679 1.9808 255 40 40
16.0318 -9.5775 1.9808 255 40 40
16.0305 -9.5871 1.9808 255 40 40
16.0292 -9.5967 1.9808 255 40 40
16.0278 -9.6064 1.9808 255 40 40
16.0265 -9.6160 1.9808 255 40 40
16.0252 -9.6256 1.9808 255 40 40
16.0238 -9.6352 1.9808 255 40 40
16.0225 -9.6449 1.9808 255 40 40
16.0212 -9.6545 1.9808 255 40 40
16.0198 -9.6641 1.9808 255 40 40
16.0185 -9.6737 1.9808 255 40 40
16.0171 -9.6833 1.9808 255 40 40
16.0158 -9.6930 1.9808 255 40 40
16.0145 -9.7026 1.9808 255 40 40
16.0131 -9.7122 1.9808 255 40 40
16.0118 -9.7218 1.9808 255 40 40
16.0105 -9.7315 1.9808 255 40 40
16.0091 -9.7411 1.9808 255 40 40
16.0078 -9.7507 1.9808 255 40 40
16.0065 -9.7603 1.9808 255 40 40
16.0051 -9.7700 1.9808 255 40 40
16.0038 -9.7796 1.9808 255 40 40
16.0024 -9.7892 1.9808 255 40 40
16.0011 -9.7988 1.9808 255 40 40
15.9998 -9.8084 1.9808 255 40 40
15.9984 -9.8181 1.9808 255 40 40
15.9971 -9.8277 1.9808 255 40 40
15.9958 -9.8373 1.9808 255 40 40
15.9944 -9.8469 1.9808 255 40 40
15.9931 -9.8566 1.9808 255 40 40
15.9918 -9.8662 1.9808 255 40 40
15.9904 -9.8758 1.9808 255 40 40
15.9891 -9.8854 1.9808 255 40 40
15.9891 -9.8854 0.3487 255 40 40
