ply
format ascii 1.0
element vertex 1505
property float x
property float y
property float z
property uchar red
property uchar green
property uchar blue
end_header
20.3857 4.2430 2.1906 0 255 0
20.3603 4.2297 2.1906 0 255 0
20.3349 4.2163 2.1906 0 255 0
20.3096 4.2030 2.1906 0 255 0
20.2842 4.1897 2.1906 0 255 0
20.2589 4.1764 2.1906 0 255 0
20.2335 4.1631 2.1906 0 255 0
20.2081 4.1497 2.1906 0 255 0
20.2081 4.1497 2.1906 0 255 0
20.2135 4.1395 2.1906 0 255 0
20.2189 4.1293 2.1906 0 255 0
20.2242 4.1190 2.1906 0 255 0
20.2296 4.1088 2.1906 0 255 0
20.2350 4.0986 2.1906 0 255 0
20.2404 4.0883 2.1906 0 255 0
20.2457 4.0781 2.1906 0 255 0
20.2511 4.0679 2.1906 0 255 0
20.2565 4.0577 2.1906 0 255 0
20.2619 4.0474 2.1906 0 255 0
20.2672 4.0372 2.1906 0 255 0
20.2726 4.0270 2.1906 0 255 0
20.2780 4.0167 2.1906 0 255 0
20.2834 4.0065 2.1906 0 255 0
20.2887 3.9963 2.1906 0 255 0
20.2941 3.9860 2.1906 0 255 0
20.2995 3.9758 2.1906 0 255 0
20.3048 3.9656 2.1906 0 255 0
20.3102 3.9553 2.1906 0 255 0
20.3156 3.9451 2.1906 0 255 0
20.3210 3.9349 2.1906 0 255 0
20.3263 3.9246 2.1906 0 255 0
20.3317 3.9144 2.1906 0 255 0
20.3371 3.9042 2.1906 0 255 0
20.3425 3.8939 2.1906 0 255 0
20.3478 3.8837 2.1906 0 255 0
20.3532 3.8735 2.1906 0 255 0
20.3586 3.8632 2.1906 0 255 0
20.3640 3.8530 2.1906 0 255 0
20.3693 3.8428 2.1906 0 255 0
20.3747 3.8325 2.1906 0 255 0
20.3801 3.8223 2.1906 0 255 0
20.3855 3.8121 2.1906 0 255 0
20.3908 3.8018 2.1906 0 255 0
20.3962 3.7916 2.1906 0 255 0
20.4016 3.7814 2.1906 0 255 0
20.4069 3.7711 2.1906 0 255 0
20.4123 3.7609 2.1906 0 255 0
20.4177 3.7507 2.1906 0 255 0
20.4231 3.7404 2.1906 0 255 0
20.4284 3.7302 2.1906 0 255 0
20.4338 3.7200 2.1906 0 255 0
20.4392 3.7098 2.1906 0 255 0
20.4446 3.6995 2.1906 0 255 0
20.4499 3.6893 2.1906 0 255 0
20.4553 3.6791 2.1906 0 255 0
20.4607 3.6688 2.1906 0 255 0
20.4661 3.6586 2.1906 0 255 0
20.4714 3.6484 2.1906 0 255 0
20.4768 3.6381 2.1906 0 255 0
20.4822 3.6279 2.1906 0 255 0
20.4876 3.6177 2.1906 0 255 0
20.4929 3.6074 2.1906 0 255 0
20.4983 3.5972 2.1906 0 255 0
20.5037 3.5870 2.1906 0 255 0
20.5091 3.5767 2.1906 0 255 0
20.5144 3.5665 2.1906 0 255 0
20.5198 3.5563 2.1906 0 255 0
20.5252 3.5460 2.1906 0 255 0
20.5305 3.5358 2.1906 0 255 0
20.5359 3.5256 2.1906 0 255 0
20.5413 3.5153 2.1906 0 255 0
20.5467 3.5051 2.1906 0 255 0
20.5520 3.4949 2.1906 0 255 0
20.5574 3.4846 2.1906 0 255 0
20.5628 3.4744 2.1906 0 255 0
20.5682 3.4642 2.1906 0 255 0
20.5735 3.4539 2.1906 0 255 0
20.5789 3.4437 2.1906 0 255 0
20.5843 3.4335 2.1906 0 255 0
20.5897 3.4232 2.1906 0 255 0
20.5950 3.4130 2.1906 0 255 0
20.6004 3.4028 2.1906 0 255 0
20.6058 3.3925 2.1906 0 255 0
20.6112 3.3823 2.1906 0 255 0
20.6165 3.3721 2.1906 0 255 0
20.6219 3.3619 2.1906 0 255 0
20.6273 3.3516 2.1906 0 255 0
20.6326 3.3414 2.1906 0 255 0
20.6380 3.3312 2.1906 0 255 0
20.6434 3.3209 2.1906 0 255 0
20.6488 3.3107 2.1906 0 255 0
20.6541 3.3005 2.1906 0 255 0
20.6595 3.2902 2.1906 0 255 0
20.6649 3.2800 2.1906 0 255 0
20.6703 3.2698 2.1906 0 255 0
20.6756 3.2595 2.1906 0 255 0
20.6810 3.2493 2.1906 0 255 0
20.6864 3.2391 2.1906 0 255 0
20.6918 3.2288 2.1906 0 255 0
20.6971 3.2186 2.1906 0 255 0
20.7025 3.2084 2.1906 0 255 0
20.7079 3.1981 2.1906 0 255 0
20.7133 3.1879 2.1906 0 255 0
20.7186 3.1777 2.1906 0 255 0
20.7240 3.1674 2.1906 0 255 0
20.7294 3.1572 2.1906 0 255 0
20.7347 3.1470 2.1906 0 255 0
20.7401 3.1367 2.1906 0 255 0
20.7455 3.1265 2.1906 0 255 0
20.7509 3.1163 2.1906 0 255 0
20.7562 3.1060 2.1906 0 255 0
20.7616 3.0958 2.1906 0 255 0
20.7670 3.0856 2.1906 0 255 0
20.7724 3.0753 2.1906 0 255 0
20.7777 3.0651 2.1906 0 255 0
20.7831 3.0549 2.1906 0 255 0
20.7885 3.0447 2.1906 0 255 0
20.7939 3.0344 2.1906 0 255 0
20.7992 3.0242 2.1906 0 255 0
20.8046 3.0140 2.1906 0 255 0
20.8100 3.0037 2.1906 0 255 0
20.8154 2.9935 2.1906 0 255 0
20.8207 2.9833 2.1906 0 255 0
20.8261 2.9730 2.1906 0 255 0
20.8315 2.9628 2.1906 0 255 0
20.8368 2.9526 2.1906 0 255 0
20.8422 2.9423 2.1906 0 255 0
20.8476 2.9321 2.1906 0 255 0
20.8530 2.9219 2.1906 0 255 0
20.8583 2.9116 2.1906 0 255 0
20.8637 2.9014 2.1906 0 255 0
20.8691 2.8912 2.1906 0 255 0
20.8745 2.8809 2.1906 0 255 0
20.8798 2.8707 2.1906 0 255 0
20.8852 2.8605 2.1906 0 255 0
20.8906 2.8502 2.1906 0 255 0
20.8960 2.8400 2.1906 0 255 0
20.9013 2.8298 2.1906 0 255 0
20.9067 2.8195 2.1906 0 255 0
20.9121 2.8093 2.1906 0 255 0
20.9175 2.7991 2.1906 0 255 0
20.9228 2.7888 2.1906 0 255 0
20.9282 2.7786 2.1906 0 255 0
20.9336 2.7684 2.1906 0 255 0
20.9390 2.7581 2.1906 0 255 0
20.9443 2.7479 2.1906 0 255 0
20.9497 2.7377 2.1906 0 255 0
20.9551 2.7274 2.1906 0 255 0
20.9604 2.7172 2.1906 0 255 0
20.9658 2.7070 2.1906 0 255 0
20.9712 2.6968 2.1906 0 255 0
20.9766 2.6865 2.1906 0 255 0
20.9819 2.6763 2.1906 0 255 0
20.9873 2.6661 2.1906 0 255 0
20.9927 2.6558 2.1906 0 255 0
20.9981 2.6456 2.1906 0 255 0
21.0034 2.6354 2.1906 0 255 0
21.0088 2.6251 2.1906 0 255 0
21.0142 2.6149 2.1906 0 255 0
21.0196 2.6047 2.1906 0 255 0
21.0249 2.5944 2.1906 0 255 0
21.0303 2.5842 2.1906 0 255 0
21.0357 2.5740 2.1906 0 255 0
21.0411 2.5637 2.1906 0 255 0
21.0464 2.5535 2.1906 0 255 0
21.0518 2.5433 2.1906 0 255 0
21.0572 2.5330 2.1906 0 255 0
21.0625 2.5228 2.1906 0 255 0
21.0679 2.5126 2.1906 0 255 0
21.0733 2.5023 2.1906 0 255 0
21.0787 2.4921 2.1906 0 255 0
21.0840 2.4819 2.1906 0 255 0
21.0894 2.4716 2.1906 0 255 0
21.0948 2.4614 2.1906 0 255 0
21.0948 2.4614 0.2336 0 255 0
21.0948 2.4614 0.2454 0 255 0
21.0948 2.4614 0.2573 0 255 0
21.0948 2.4614 0.2692 0 255 0
21.0948 2.4614 0.2810 0 255 0
21.0948 2.4614 0.2929 0 255 0
21.0948 2.4614 0.3047 0 255 0
21.0948 2.4614 0.3166 0 255 0
21.0948 2.4614 0.3285 0 255 0
21.0948 2.4614 0.3403 0 255 0
21.0948 2.4614 0.3522 0 255 0
21.0948 2.4614 0.3640 0 255 0
21.0948 2.4614 0.3759 0 255 0
21.0948 2.4614 0.3878 0 255 0
21.0948 2.4614 0.3996 0 255 0
21.0948 2.4614 0.4115 0 255 0
21.0948 2.4614 0.4233 0 255 0
21.0948 2.4614 0.4352 0 255 0
21.0948 2.4614 0.4471 0 255 0
21.0948 2.4614 0.4589 0 255 0
21.0948 2.4614 0.4708 0 255 0
21.0948 2.4614 0.4826 0 255 0
21.0948 2.4614 0.4945 0 255 0
21.0948 2.4614 0.5064 0 255 0
21.0948 2.4614 0.5182 0 255 0
21.0948 2.4614 0.5301 0 255 0
21.0948 2.4614 0.5419 0 255 0
21.0948 2.4614 0.5538 0 255 0
21.0948 2.4614 0.5657 0 255 0
21.0948 2.4614 0.5775 0 255 0
21.0948 2.4614 0.5894 0 255 0
21.0948 2.4614 0.6013 0 255 0
21.0948 2.4614 0.6131 0 255 0
21.0948 2.4614 0.6250 0 255 0
21.0948 2.4614 0.6368 0 255 0
21.0948 2.4614 0.6487 0 255 0
21.0948 2.4614 0.6606 0 255 0
21.0948 2.4614 0.6724 0 255 0
21.0948 2.4614 0.6843 0 255 0
21.0948 2.4614 0.6961 0 255 0
21.0948 2.4614 0.7080 0 255 0
21.0948 2.4614 0.7199 0 255 0
21.0948 2.4614 0.7317 0 255 0
21.0948 2.4614 0.7436 0 255 0
21.0948 2.4614 0.7554 0 255 0
21.0948 2.4614 0.7673 0 255 0
21.0948 2.4614 0.7792 0 255 0
21.0948 2.4614 0.7910 0 255 0
21.0948 2.4614 0.8029 0 255 0
21.0948 2.4614 0.8147 0 255 0
21.0948 2.4614 0.8266 0 255 0
21.0948 2.4614 0.8385 0 255 0
21.0948 2.4614 0.8503 0 255 0
21.0948 2.4614 0.8622 0 255 0
21.0948 2.4614 0.8740 0 255 0
21.0948 2.4614 0.8859 0 255 0
21.0948 2.4614 0.8978 0 255 0
21.0948 2.4614 0.9096 0 255 0
21.0948 2.4614 0.9215 0 255 0
21.0948 2.4614 0.9333 0 255 0
21.0948 2.4614 0.9452 0 255 0
21.0948 2.4614 0.9571 0 255 0
21.0948 2.4614 0.9689 0 255 0
21.0948 2.4614 0.9808 0 255 0
21.0948 2.4614 0.9927 0 255 0
21.0948 2.4614 1.0045 0 255 0
21.0948 2.4614 1.0164 0 255 0
21.0948 2.4614 1.0282 0 255 0
21.0948 2.4614 1.0401 0 255 0
21.0948 2.4614 1.0520 0 255 0
21.0948 2.4614 1.0638 0 255 0
21.0948 2.4614 1.0757 0 255 0
21.0948 2.4614 1.0875 0 255 0
21.0948 2.4614 1.0994 0 255 0
21.0948 2.4614 1.1113 0 255 0
21.0948 2.4614 1.1231 0 255 0
21.0948 2.4614 1.1350 0 255 0
21.0948 2.4614 1.1468 0 255 0
21.0948 2.4614 1.1587 0 255 0
21.0948 2.4614 1.1706 0 255 0
21.0948 2.4614 1.1824 0 255 0
21.0948 2.4614 1.1943 0 255 0
21.0948 2.4614 1.2061 0 255 0
21.0948 2.4614 1.2180 0 255 0
21.0948 2.4614 1.2299 0 255 0
21.0948 2.4614 1.2417 0 255 0
21.0948 2.4614 1.2536 0 255 0
21.0948 2.4614 1.2654 0 255 0
21.0948 2.4614 1.2773 0 255 0
21.0948 2.4614 1.2892 0 255 0
21.0948 2.4614 1.3010 0 255 0
21.0948 2.4614 1.3129 0 255 0
21.0948 2.4614 1.3247 0 255 0
21.0948 2.4614 1.3366 0 255 0
21.0948 2.4614 1.3485 0 255 0
21.0948 2.4614 1.3603 0 255 0
21.0948 2.4614 1.3722 0 255 0
21.0948 2.4614 1.3841 0 255 0
21.0948 2.4614 1.3959 0 255 0
21.0948 2.4614 1.4078 0 255 0
21.0948 2.4614 1.4196 0 255 0
21.0948 2.4614 1.4315 0 255 0
21.0948 2.4614 1.4434 0 255 0
21.0948 2.4614 1.4552 0 255 0
21.0948 2.4614 1.4671 0 255 0
21.0948 2.4614 1.4789 0 255 0
21.0948 2.4614 1.4908 0 255 0
21.0948 2.4614 1.5027 0 255 0
21.0948 2.4614 1.5145 0 255 0
21.0948 2.4614 1.5264 0 255 0
21.0948 2.4614 1.5382 0 255 0
21.0948 2.4614 1.5501 0 255 0
21.0948 2.4614 1.5620 0 255 0
21.0948 2.4614 1.5738 0 255 0
21.0948 2.4614 1.5857 0 255 0
21.0948 2.4614 1.5975 0 255 0
21.0948 2.4614 1.6094 0 255 0
21.0948 2.4614 1.6213 0 255 0
21.0948 2.4614 1.6331 0 255 0
21.0948 2.4614 1.6450 0 255 0
21.0948 2.4614 1.6568 0 255 0
21.0948 2.4614 1.6687 0 255 0
21.0948 2.4614 1.6806 0 255 0
21.0948 2.4614 1.6924 0 255 0
21.0948 2.4614 1.7043 0 255 0
21.0948 2.4614 1.7161 0 255 0
21.0948 2.4614 1.7280 0 255 0
21.0948 2.4614 1.7399 0 255 0
21.0948 2.4614 1.7517 0 255 0
21.0948 2.4614 1.7636 0 255 0
21.0948 2.4614 1.7755 0 255 0
21.0948 2.4614 1.7873 0 255 0
21.0948 2.4614 1.7992 0 255 0
21.0948 2.4614 1.8110 0 255 0
21.0948 2.4614 1.8229 0 255 0
21.0948 2.4614 1.8348 0 255 0
21.0948 2.4614 1.8466 0 255 0
21.0948 2.4614 1.8585 0 255 0
21.0948 2.4614 1.8703 0 255 0
21.0948 2.4614 1.8822 0 255 0
21.0948 2.4614 1.8941 0 255 0
21.0948 2.4614 1.9059 0 255 0
21.0948 2.4614 1.9178 0 255 0
21.0948 2.4614 1.9296 0 255 0
21.0948 2.4614 1.9415 0 255 0
21.0948 2.4614 1.9534 0 255 0
21.0948 2.4614 1.9652 0 255 0
21.0948 2.4614 1.9771 0 255 0
21.0948 2.4614 1.9889 0 255 0
21.0948 2.4614 2.0008 0 255 0
21.0948 2.4614 2.0127 0 255 0
21.0948 2.4614 2.0245 0 255 0
21.0948 2.4614 2.0364 0 255 0
21.0948 2.4614 2.0482 0 255 0
21.0948 2.4614 2.0601 0 255 0
21.0948 2.4614 2.0720 0 255 0
21.0948 2.4614 2.0838 0 255 0
21.0948 2.4614 2.0957 0 255 0
21.0948 2.4614 2.1075 0 255 0
21.0948 2.4614 2.1194 0 255 0
21.0948 2.4614 2.1313 0 255 0
21.0948 2.4614 2.1431 0 255 0
21.0948 2.4614 2.1550 0 255 0
21.0948 2.4614 2.1669 0 255 0
21.0948 2.4614 2.1787 0 255 0
21.0948 2.4614 2.1906 0 255 0
25.2798 4.6592 0.2336 0 255 0
25.2798 4.6592 0.2454 0 255 0
25.2798 4.6592 0.2573 0 255 0
25.2798 4.6592 0.2692 0 255 0
25.2798 4.6592 0.2810 0 255 0
25.2798 4.6592 0.2929 0 255 0
25.2798 4.6592 0.3047 0 255 0
25.2798 4.6592 0.3166 0 255 0
25.2798 4.6592 0.3285 0 255 0
25.2798 4.6592 0.3403 0 255 0
25.2798 4.6592 0.3522 0 255 0
25.2798 4.6592 0.3640 0 255 0
25.2798 4.6592 0.3759 0 255 0
25.2798 4.6592 0.3878 0 255 0
25.2798 4.6592 0.3996 0 255 0
25.2798 4.6592 0.4115 0 255 0
25.2798 4.6592 0.4233 0 255 0
25.2798 4.6592 0.4352 0 255 0
25.2798 4.6592 0.4471 0 255 0
25.2798 4.6592 0.4589 0 255 0
25.2798 4.6592 0.4708 0 255 0
25.2798 4.6592 0.4826 0 255 0
25.2798 4.6592 0.4945 0 255 0
25.2798 4.6592 0.5064 0 255 0
25.2798 4.6592 0.5182 0 255 0
25.2798 4.6592 0.5301 0 255 0
25.2798 4.6592 0.5419 0 255 0
25.2798 4.6592 0.5538 0 255 0
25.2798 4.6592 0.5657 0 255 0
25.2798 4.6592 0.5775 0 255 0
25.2798 4.6592 0.5894 0 255 0
25.2798 4.6592 0.6013 0 255 0
25.2798 4.6592 0.6131 0 255 0
25.2798 4.6592 0.6250 0 255 0
25.2798 4.6592 0.6368 0 255 0
25.2798 4.6592 0.6487 0 255 0
25.2798 4.6592 0.6606 0 255 0
25.2798 4.6592 0.6724 0 255 0
25.2798 4.6592 0.6843 0 255 0
25.2798 4.6592 0.6961 0 255 0
25.2798 4.6592 0.7080 0 255 0
25.2798 4.6592 0.7199 0 255 0
25.2798 4.6592 0.7317 0 255 0
25.2798 4.6592 0.7436 0 255 0
25.2798 4.6592 0.7554 0 255 0
25.2798 4.6592 0.7673 0 255 0
25.2798 4.6592 0.7792 0 255 0
25.2798 4.6592 0.7910 0 255 0
25.2798 4.6592 0.8029 0 255 0
25.2798 4.6592 0.8147 0 255 0
25.2798 4.6592 0.8266 0 255 0
25.2798 4.6592 0.8385 0 255 0
25.2798 4.6592 0.8503 0 255 0
25.2798 4.6592 0.8622 0 255 0
25.2798 4.6592 0.8740 0 255 0
25.2798 4.6592 0.8859 0 255 0
25.2798 4.6592 0.8978 0 255 0
25.2798 4.6592 0.9096 0 255 0
25.2798 4.6592 0.9215 0 255 0
25.2798 4.6592 0.9333 0 255 0
25.2798 4.6592 0.9452 0 255 0
25.2798 4.6592 0.9571 0 255 0
25.2798 4.6592 0.9689 0 255 0
25.2798 4.6592 0.9808 0 255 0
25.2798 4.6592 0.9927 0 255 0
25.2798 4.6592 1.0045 0 255 0
25.2798 4.6592 1.0164 0 255 0
25.2798 4.6592 1.0282 0 255 0
25.2798 4.6592 1.0401 0 255 0
25.2798 4.6592 1.0520 0 255 0
25.2798 4.6592 1.0638 0 255 0
25.2798 4.6592 1.0757 0 255 0
25.2798 4.6592 1.0875 0 255 0
25.2798 4.6592 1.0994 0 255 0
25.2798 4.6592 1.1113 0 255 0
25.2798 4.6592 1.1231 0 255 0
25.2798 4.6592 1.1350 0 255 0
25.2798 4.6592 1.1468 0 255 0
25.2798 4.6592 1.1587 0 255 0
25.2798 4.6592 1.1706 0 255 0
25.2798 4.6592 1.1824 0 255 0
25.2798 4.6592 1.1943 0 255 0
25.2798 4.6592 1.2061 0 255 0
25.2798 4.6592 1.2180 0 255 0
25.2798 4.6592 1.2299 0 255 0
25.2798 4.6592 1.2417 0 255 0
25.2798 4.6592 1.2536 0 255 0
25.2798 4.6592 1.2654 0 255 0
25.2798 4.6592 1.2773 0 255 0
25.2798 4.6592 1.2892 0 255 0
25.2798 4.6592 1.3010 0 255 0
25.2798 4.6592 1.3129 0 255 0
25.2798 4.6592 1.3247 0 255 0
25.2798 4.6592 1.3366 0 255 0
25.2798 4.6592 1.3485 0 255 0
25.2798 4.6592 1.3603 0 255 0
25.2798 4.6592 1.3722 0 255 0
25.2798 4.6592 1.3841 0 255 0
25.2798 4.6592 1.3959 0 255 0
25.2798 4.6592 1.4078 0 255 0
25.2798 4.6592 1.4196 0 255 0
25.2798 4.6592 1.4315 0 255 0
25.2798 4.6592 1.4434 0 255 0
25.2798 4.6592 1.4552 0 255 0
25.2798 4.6592 1.4671 0 255 0
25.2798 4.6592 1.4789 0 255 0
25.2798 4.6592 1.4908 0 255 0
25.2798 4.6592 1.5027 0 255 0
25.2798 4.6592 1.5145 0 255 0
25.2798 4.6592 1.5264 0 255 0
25.2798 4.6592 1.5382 0 255 0
25.2798 4.6592 1.5501 0 255 0
25.2798 4.6592 1.5620 0 255 0
25.2798 4.6592 1.5738 0 255 0
25.2798 4.6592 1.5857 0 255 0
25.2798 4.6592 1.5975 0 255 0
25.2798 4.6592 1.6094 0 255 0
25.2798 4.6592 1.6213 0 255 0
25.2798 4.6592 1.6331 0 255 0
25.2798 4.6592 1.6450 0 255 0
25.2798 4.6592 1.6568 0 255 0
25.2798 4.6592 1.6687 0 255 0
25.2798 4.6592 1.6806 0 255 0
25.2798 4.6592 1.6924 0 255 0
25.2798 4.6592 1.7043 0 255 0
25.2798 4.6592 1.7161 0 255 0
25.2798 4.6592 1.7280 0 255 0
25.2798 4.6592 1.7399 0 255 0
25.2798 4.6592 1.7517 0 255 0
25.2798 4.6592 1.7636 0 255 0
25.2798 4.6592 1.7755 0 255 0
25.2798 4.6592 1.7873 0 255 0
25.2798 4.6592 1.7992 0 255 0
25.2798 4.6592 1.8110 0 255 0
25.2798 4.6592 1.8229 0 255 0
25.2798 4.6592 1.8348 0 255 0
25.2798 4.6592 1.8466 0 255 0
25.2798 4.6592 1.8585 0 255 0
25.2798 4.6592 1.8703 0 255 0
25.2798 4.6592 1.8822 0 255 0
25.2798 4.6592 1.8941 0 255 0
25.2798 4.6592 1.9059 0 255 0
25.2798 4.6592 1.9178 0 255 0
25.2798 4.6592 1.9296 0 255 0
25.2798 4.6592 1.9415 0 255 0
25.2798 4.6592 1.9534 0 255 0
25.2798 4.6592 1.9652 0 255 0
25.2798 4.6592 1.9771 0 255 0
25.2798 4.6592 1.9889 0 255 0
25.2798 4.6592 2.0008 0 255 0
25.2798 4.6592 2.0127 0 255 0
25.2798 4.6592 2.0245 0 255 0
25.2798 4.6592 2.0364 0 255 0
25.2798 4.6592 2.0482 0 255 0
25.2798 4.6592 2.0601 0 255 0
25.2798 4.6592 2.0720 0 255 0
25.2798 4.6592 2.0838 0 255 0
25.2798 4.6592 2.0957 0 255 0
25.2798 4.6592 2.1075 0 255 0
25.2798 4.6592 2.1194 0 255 0
25.2798 4.6592 2.1313 0 255 0
25.2798 4.6592 2.1431 0 255 0
25.2798 4.6592 2.1550 0 255 0
25.2798 4.6592 2.1669 0 255 0
25.2798 4.6592 2.1787 0 255 0
25.2798 4.6592 2.1906 0 255 0
24.3931 6.3476 0.2336 0 255 0
24.3931 6.3476 0.2454 0 255 0
24.3931 6.3476 0.2573 0 255 0
24.3931 6.3476 0.2692 0 255 0
24.3931 6.3476 0.2810 0 255 0
24.3931 6.3476 0.2929 0 255 0
24.3931 6.3476 0.3047 0 255 0
24.3931 6.3476 0.3166 0 255 0
24.3931 6.3476 0.3285 0 255 0
24.3931 6.3476 0.3403 0 255 0
24.3931 6.3476 0.3522 0 255 0
24.3931 6.3476 0.3640 0 255 0
24.3931 6.3476 0.3759 0 255 0
24.3931 6.3476 0.3878 0 255 0
24.3931 6.3476 0.3996 0 255 0
24.3931 6.3476 0.4115 0 255 0
24.3931 6.3476 0.4233 0 255 0
24.3931 6.3476 0.4352 0 255 0
24.3931 6.3476 0.4471 0 255 0
24.3931 6.3476 0.4589 0 255 0
24.3931 6.3476 0.4708 0 255 0
24.3931 6.3476 0.4826 0 255 0
24.3931 6.3476 0.4945 0 255 0
24.3931 6.3476 0.5064 0 255 0
24.3931 6.3476 0.5182 0 255 0
24.3931 6.3476 0.5301 0 255 0
24.3931 6.3476 0.5419 0 255 0
24.3931 6.3476 0.5538 0 255 0
24.3931 6.3476 0.5657 0 255 0
24.3931 6.3476 0.5775 0 255 0
24.3931 6.3476 0.5894 0 255 0
24.3931 6.3476 0.6013 0 255 0
24.3931 6.3476 0.6131 0 255 0
24.3931 6.3476 0.6250 0 255 0
24.3931 6.3476 0.6368 0 255 0
24.3931 6.3476 0.6487 0 255 0
24.3931 6.3476 0.6606 0 255 0
24.3931 6.3476 0.6724 0 255 0
24.3931 6.3476 0.6843 0 255 0
24.3931 6.3476 0.6961 0 255 0
24.3931 6.3476 0.7080 0 255 0
24.3931 6.3476 0.7199 0 255 0
24.3931 6.3476 0.7317 0 255 0
24.3931 6.3476 0.7436 0 255 0
24.3931 6.3476 0.7554 0 255 0
24.3931 6.3476 0.7673 0 255 0
24.3931 6.3476 0.7792 0 255 0
24.3931 6.3476 0.7910 0 255 0
24.3931 6.3476 0.8029 0 255 0
24.3931 6.3476 0.8147 0 255 0
24.3931 6.3476 0.8266 0 255 0
24.3931 6.3476 0.8385 0 255 0
24.3931 6.3476 0.8503 0 255 0
24.3931 6.3476 0.8622 0 255 0
24.3931 6.3476 0.8740 0 255 0
24.3931 6.3476 0.8859 0 255 0
24.3931 6.3476 0.8978 0 255 0
24.3931 6.3476 0.9096 0 255 0
24.3931 6.3476 0.9215 0 255 0
24.3931 6.3476 0.9333 0 255 0
24.3931 6.3476 0.9452 0 255 0
24.3931 6.3476 0.9571 0 255 0
24.3931 6.3476 0.9689 0 255 0
24.3931 6.3476 0.9808 0 255 0
24.3931 6.3476 0.9927 0 255 0
24.3931 6.3476 1.0045 0 255 0
24.3931 6.3476 1.0164 0 255 0
24.3931 6.3476 1.0282 0 255 0
24.3931 6.3476 1.0401 0 255 0
24.3931 6.3476 1.0520 0 255 0
24.3931 6.3476 1.0638 0 255 0
24.3931 6.3476 1.0757 0 255 0
24.3931 6.3476 1.0875 0 255 0
24.3931 6.3476 1.0994 0 255 0
24.3931 6.3476 1.1113 0 255 0
24.3931 6.3476 1.1231 0 255 0
24.3931 6.3476 1.1350 0 255 0
24.3931 6.3476 1.1468 0 255 0
24.3931 6.3476 1.1587 0 255 0
24.3931 6.3476 1.1706 0 255 0
24.3931 6.3476 1.1824 0 255 0
24.3931 6.3476 1.1943 0 255 0
24.3931 6.3476 1.2061 0 255 0
24.3931 6.3476 1.2180 0 255 0
24.3931 6.3476 1.2299 0 255 0
24.3931 6.3476 1.2417 0 255 0
24.3931 6.3476 1.2536 0 255 0
24.3931 6.3476 1.2654 0 255 0
24.3931 6.3476 1.2773 0 255 0
24.3931 6.3476 1.2892 0 255 0
24.3931 6.3476 1.3010 0 255 0
24.3931 6.3476 1.3129 0 255 0
24.3931 6.3476 1.3247 0 255 0
24.3931 6.3476 1.3366 0 255 0
24.3931 6.3476 1.3485 0 255 0
24.3931 6.3476 1.3603 0 255 0
24.3931 6.3476 1.3722 0 255 0
24.3931 6.3476 1.3841 0 255 0
24.3931 6.3476 1.3959 0 255 0
24.3931 6.3476 1.4078 0 255 0
24.3931 6.3476 1.4196 0 255 0
24.3931 6.3476 1.4315 0 255 0
24.3931 6.3476 1.4434 0 255 0
24.3931 6.3476 1.4552 0 255 0
24.3931 6.3476 1.4671 0 255 0
24.3931 6.3476 1.4789 0 255 0
24.3931 6.3476 1.4908 0 255 0
24.3931 6.3476 1.5027 0 255 0
24.3931 6.3476 1.5145 0 255 0
24.3931 6.3476 1.5264 0 255 0
24.3931 6.3476 1.5382 0 255 0
24.3931 6.3476 1.5501 0 255 0
24.3931 6.3476 1.5620 0 255 0
24.3931 6.3476 1.5738 0 255 0
24.3931 6.3476 1.5857 0 255 0
24.3931 6.3476 1.5975 0 255 0
24.3931 6.3476 1.6094 0 255 0
24.3931 6.3476 1.6213 0 255 0
24.3931 6.3476 1.6331 0 255 0
24.3931 6.3476 1.6450 0 255 0
24.3931 6.3476 1.6568 0 255 0
24.3931 6.3476 1.6687 0 255 0
24.3931 6.3476 1.6806 0 255 0
24.3931 6.3476 1.6924 0 255 0
24.3931 6.3476 1.7043 0 255 0
24.3931 6.3476 1.7161 0 255 0
24.3931 6.3476 1.7280 0 255 0
24.3931 6.3476 1.7399 0 255 0
24.3931 6.3476 1.7517 0 255 0
24.3931 6.3476 1.7636 0 255 0
24.3931 6.3476 1.7755 0 255 0
24.3931 6.3476 1.7873 0 255 0
24.3931 6.3476 1.7992 0 255 0
24.3931 6.3476 1.8110 0 255 0
24.3931 6.3476 1.8229 0 255 0
24.3931 6.3476 1.8348 0 255 0
24.3931 6.3476 1.8466 0 255 0
24.3931 6.3476 1.8585 0 255 0
24.3931 6.3476 1.8703 0 255 0
24.3931 6.3476 1.8822 0 255 0
24.3931 6.3476 1.8941 0 255 0
24.3931 6.3476 1.9059 0 255 0
24.3931 6.3476 1.9178 0 255 0
24.3931 6.3476 1.9296 0 255 0
24.3931 6.3476 1.9415 0 255 0
24.3931 6.3476 1.9534 0 255 0
24.3931 6.3476 1.9652 0 255 0
24.3931 6.3476 1.9771 0 255 0
24.3931 6.3476 1.9889 0 255 0
24.3931 6.3476 2.0008 0 255 0
24.3931 6.3476 2.0127 0 255 0
24.3931 6.3476 2.0245 0 255 0
24.3931 6.3476 2.0364 0 255 0
24.3931 6.3476 2.0482 0 255 0
24.3931 6.3476 2.0601 0 255 0
24.3931 6.3476 2.0720 0 255 0
24.3931 6.3476 2.0838 0 255 0
24.3931 6.3476 2.0957 0 255 0
24.3931 6.3476 2.1075 0 255 0
24.3931 6.3476 2.1194 0 255 0
24.3931 6.3476 2.1313 0 255 0
24.3931 6.3476 2.1431 0 255 0
24.3931 6.3476 2.1550 0 255 0
24.3931 6.3476 2.1669 0 255 0
24.3931 6.3476 2.1787 0 255 0
24.3931 6.3476 2.1906 0 255 0
20.2081 4.1497 0.2336 0 255 0
20.2081 4.1497 0.2454 0 255 0
20.2081 4.1497 0.2573 0 255 0
20.2081 4.1497 0.2692 0 255 0
20.2081 4.1497 0.2810 0 255 0
20.2081 4.1497 0.2929 0 255 0
20.2081 4.1497 0.3047 0 255 0
20.2081 4.1497 0.3166 0 255 0
20.2081 4.1497 0.3285 0 255 0
20.2081 4.1497 0.3403 0 255 0
20.2081 4.1497 0.3522 0 255 0
20.2081 4.1497 0.3640 0 255 0
20.2081 4.1497 0.3759 0 255 0
20.2081 4.1497 0.3878 0 255 0
20.2081 4.1497 0.3996 0 255 0
20.2081 4.1497 0.4115 0 255 0
20.2081 4.1497 0.4233 0 255 0
20.2081 4.1497 0.4352 0 255 0
20.2081 4.1497 0.4471 0 255 0
20.2081 4.1497 0.4589 0 255 0
20.2081 4.1497 0.4708 0 255 0
20.2081 4.1497 0.4826 0 255 0
20.2081 4.1497 0.4945 0 255 0
20.2081 4.1497 0.5064 0 255 0
20.2081 4.1497 0.5182 0 255 0
20.2081 4.1497 0.5301 0 255 0
20.2081 4.1497 0.5419 0 255 0
20.2081 4.1497 0.5538 0 255 0
20.2081 4.1497 0.5657 0 255 0
20.2081 4.1497 0.5775 0 255 0
20.2081 4.1497 0.5894 0 255 0
20.2081 4.1497 0.6013 0 255 0
20.2081 4.1497 0.6131 0 255 0
20.2081 4.1497 0.6250 0 255 0
20.2081 4.1497 0.6368 0 255 0
20.2081 4.1497 0.6487 0 255 0
20.2081 4.1497 0.6606 0 255 0
20.2081 4.1497 0.6724 0 255 0
20.2081 4.1497 0.6843 0 255 0
20.2081 4.1497 0.6961 0 255 0
20.2081 4.1497 0.7080 0 255 0
20.2081 4.1497 0.7199 0 255 0
20.2081 4.1497 0.7317 0 255 0
20.2081 4.1497 0.7436 0 255 0
20.2081 4.1497 0.7554 0 255 0
20.2081 4.1497 0.7673 0 255 0
20.2081 4.1497 0.7792 0 255 0
20.2081 4.1497 0.7910 0 255 0
20.2081 4.1497 0.8029 0 255 0
20.2081 4.1497 0.8147 0 255 0
20.2081 4.1497 0.8266 0 255 0
20.2081 4.1497 0.8385 0 255 0
20.2081 4.1497 0.8503 0 255 0
20.2081 4.1497 0.8622 0 255 0
20.2081 4.1497 0.8740 0 255 0
20.2081 4.1497 0.8859 0 255 0
20.2081 4.1497 0.8978 0 255 0
20.2081 4.1497 0.9096 0 255 0
20.2081 4.1497 0.9215 0 255 0
20.2081 4.1497 0.9333 0 255 0
20.2081 4.1497 0.9452 0 255 0
20.2081 4.1497 0.9571 0 255 0
20.2081 4.1497 0.9689 0 255 0
20.2081 4.1497 0.9808 0 255 0
20.2081 4.1497 0.9927 0 255 0
20.2081 4.1497 1.0045 0 255 0
20.2081 4.1497 1.0164 0 255 0
20.2081 4.1497 1.0282 0 255 0
20.2081 4.1497 1.0401 0 255 0
20.2081 4.1497 1.0520 0 255 0
20.2081 4.1497 1.0638 0 255 0
20.2081 4.1497 1.0757 0 255 0
20.2081 4.1497 1.0875 0 255 0
20.2081 4.1497 1.0994 0 255 0
20.2081 4.1497 1.1113 0 255 0
20.2081 4.1497 1.1231 0 255 0
20.2081 4.1497 1.1350 0 255 0
20.2081 4.1497 1.1468 0 255 0
20.2081 4.1497 1.1587 0 255 0
20.2081 4.1497 1.1706 0 255 0
20.2081 4.1497 1.1824 0 255 0
20.2081 4.1497 1.1943 0 255 0
20.2081 4.1497 1.2061 0 255 0
20.2081 4.1497 1.2180 0 255 0
20.2081 4.1497 1.2299 0 255 0
20.2081 4.1497 1.2417 0 255 0
20.2081 4.1497 1.2536 0 255 0
20.2081 4.1497 1.2654 0 255 0
20.2081 4.1497 1.2773 0 255 0
20.2081 4.1497 1.2892 0 255 0
20.2081 4.1497 1.3010 0 255 0
20.2081 4.1497 1.3129 0 255 0
20.2081 4.1497 1.3247 0 255 0
20.2081 4.1497 1.3366 0 255 0
20.2081 4.1497 1.3485 0 255 0
20.2081 4.1497 1.3603 0 255 0
20.2081 4.1497 1.3722 0 255 0
20.2081 4.1497 1.3841 0 255 0
20.2081 4.1497 1.3959 0 255 0
20.2081 4.1497 1.4078 0 255 0
20.2081 4.1497 1.4196 0 255 0
20.2081 4.1497 1.4315 0 255 0
20.2081 4.1497 1.4434 0 255 0
20.2081 4.1497 1.4552 0 255 0
20.2081 4.1497 1.4671 0 255 0
20.2081 4.1497 1.4789 0 255 0
20.2081 4.1497 1.4908 0 255 0
20.2081 4.1497 1.5027 0 255 0
20.2081 4.1497 1.5145 0 255 0
20.2081 4.1497 1.5264 0 255 0
20.2081 4.1497 1.5382 0 255 0
20.2081 4.1497 1.5501 0 255 0
20.2081 4.1497 1.5620 0 255 0
20.2081 4.1497 1.5738 0 255 0
20.2081 4.1497 1.5857 0 255 0
20.2081 4.1497 1.5975 0 255 0
20.2081 4.1497 1.6094 0 255 0
20.2081 4.1497 1.6213 0 255 0
20.2081 4.1497 1.6331 0 255 0
20.2081 4.1497 1.6450 0 255 0
20.2081 4.1497 1.6568 0 255 0
20.2081 4.1497 1.6687 0 255 0
20.2081 4.1497 1.6806 0 255 0
20.2081 4.1497 1.6924 0 255 0
20.2081 4.1497 1.7043 0 255 0
20.2081 4.1497 1.7161 0 255 0
20.2081 4.1497 1.7280 0 255 0
20.2081 4.1497 1.7399 0 255 0
20.2081 4.1497 1.7517 0 255 0
20.2081 4.1497 1.7636 0 255 0
20.2081 4.1497 1.7755 0 255 0
20.2081 4.1497 1.7873 0 255 0
20.2081 4.1497 1.7992 0 255 0
20.2081 4.1497 1.8110 0 255 0
20.2081 4.1497 1.8229 0 255 0
20.2081 4.1497 1.8348 0 255 0
20.2081 4.1497 1.8466 0 255 0
20.2081 4.1497 1.8585 0 255 0
20.2081 4.1497 1.8703 0 255 0
20.2081 4.1497 1.8822 0 255 0
20.2081 4.1497 1.8941 0 255 0
20.2081 4.1497 1.9059 0 255 0
20.2081 4.1497 1.9178 0 255 0
20.2081 4.1497 1.9296 0 255 0
20.2081 4.1497 1.9415 0 255 0
20.2081 4.1497 1.9534 0 255 0
20.2081 4.1497 1.9652 0 255 0
20.2081 4.1497 1.9771 0 255 0
20.2081 4.1497 1.9889 0 255 0
20.2081 4.1497 2.0008 0 255 0
20.2081 4.1497 2.0127 0 255 0
20.2081 4.1497 2.0245 0 255 0
20.2081 4.1497 2.0364 0 255 0
20.2081 4.1497 2.0482 0 255 0
20.2081 4.1497 2.0601 0 255 0
20.2081 4.1497 2.0720 0 255 0
20.2081 4.1497 2.0838 0 255 0
20.2081 4.1497 2.0957 0 255 0
20.2081 4.1497 2.1075 0 255 0
20.2081 4.1497 2.1194 0 255 0
20.2081 4.1497 2.1313 0 255 0
20.2081 4.1497 2.1431 0 255 0
20.2081 4.1497 2.1550 0 255 0
20.2081 4.1497 2.1669 0 255 0
20.2081 4.1497 2.1787 0 255 0
20.2081 4.1497 2.1906 0 255 0
20.9604 2.8175 0.1473 100 150 255
20.9851 2.8315 0.1473 100 150 255
21.0097 2.8455 0.1473 100 150 255
21.0344 2.8594 0.1473 100 150 255
21.0590 2.8734 0.1473 100 150 255
21.0837 2.8874 0.1473 100 150 255
21.1083 2.9013 0.1473 100 150 255
21.1330 2.9153 0.1473 100 150 255
21.1576 2.9293 0.1473 100 150 255
21.1823 2.9432 0.1473 100 150 255
21.2069 2.9572 0.1473 100 150 255
21.2316 2.9712 0.1473 100 150 255
21.2562 2.9851 0.1473 100 150 255
21.2809 2.9991 0.1473 100 150 255
21.3055 3.0130 0.1473 100 150 255
21.3302 3.0270 0.1473 100 150 255
21.3548 3.0410 0.1473 100 150 255
21.3795 3.0549 0.1473 100 150 255
21.4041 3.0689 0.1473 100 150 255
21.4287 3.0829 0.1473 100 150 255
21.4534 3.0968 0.1473 100 150 255
21.4780 3.1108 0.1473 100 150 255
21.5027 3.1248 0.1473 100 150 255
21.5273 3.1387 0.1473 100 150 255
21.5520 3.1527 0.1473 100 150 255
21.5766 3.1667 0.1473 100 150 255
21.6013 3.1806 0.1473 100 150 255
21.6259 3.1946 0.1473 100 150 255
21.6506 3.2085 0.1473 100 150 255
21.6752 3.2225 0.1473 100 150 255
21.6999 3.2365 0.1473 100 150 255
21.7245 3.2504 0.1473 100 150 255
21.7492 3.2644 0.1473 100 150 255
21.7738 3.2784 0.1473 100 150 255
21.7985 3.2923 0.1473 100 150 255
21.8231 3.3063 0.1473 100 150 255
21.8478 3.3203 0.1473 100 150 255
21.8724 3.3342 0.1473 100 150 255
21.8970 3.3482 0.1473 100 150 255
21.9217 3.3622 0.1473 100 150 255
21.9463 3.3761 0.1473 100 150 255
21.9710 3.3901 0.1473 100 150 255
21.9956 3.4040 0.1473 100 150 255
22.0203 3.4180 0.1473 100 150 255
22.0449 3.4320 0.1473 100 150 255
22.0696 3.4459 0.1473 100 150 255
22.0942 3.4599 0.1473 100 150 255
22.1189 3.4739 0.1473 100 150 255
22.1435 3.4878 0.1473 100 150 255
22.1682 3.5018 0.1473 100 150 255
22.1928 3.5158 0.1473 100 150 255
22.2175 3.5297 0.1473 100 150 255
22.2421 3.5437 0.1473 100 150 255
22.2668 3.5577 0.1473 100 150 255
22.2914 3.5716 0.1473 100 150 255
22.3161 3.5856 0.1473 100 150 255
22.3407 3.5995 0.1473 100 150 255
22.3653 3.6135 0.1473 100 150 255
22.3900 3.6275 0.1473 100 150 255
22.4146 3.6414 0.1473 100 150 255
22.4393 3.6554 0.1473 100 150 255
22.4639 3.6694 0.1473 100 150 255
22.4886 3.6833 0.1473 100 150 255
22.5132 3.6973 0.1473 100 150 255
22.5379 3.7113 0.1473 100 150 255
22.5625 3.7252 0.1473 100 150 255
22.5872 3.7392 0.1473 100 150 255
22.6118 3.7532 0.1473 100 150 255
22.6365 3.7671 0.1473 100 150 255
22.6611 3.7811 0.1473 100 150 255
22.6858 3.7950 0.1473 100 150 255
22.7104 3.8090 0.1473 100 150 255
22.7351 3.8230 0.1473 100 150 255
22.7597 3.8369 0.1473 100 150 255
22.7844 3.8509 0.1473 100 150 255
22.8090 3.8649 0.1473 100 150 255
22.8336 3.8788 0.1473 100 150 255
22.8583 3.8928 0.1473 100 150 255
22.8829 3.9068 0.1473 100 150 255
22.9076 3.9207 0.1473 100 150 255
22.9322 3.9347 0.1473 100 150 255
22.9569 3.9487 0.1473 100 150 255
22.9815 3.9626 0.1473 100 150 255
23.0062 3.9766 0.1473 100 150 255
23.0308 3.9905 0.1473 100 150 255
23.0555 4.0045 0.1473 100 150 255
23.0801 4.0185 0.1473 100 150 255
23.1048 4.0324 0.1473 100 150 255
23.1294 4.0464 0.1473 100 150 255
23.1541 4.0604 0.1473 100 150 255
23.1787 4.0743 0.1473 100 150 255
23.2034 4.0883 0.1473 100 150 255
23.2280 4.1023 0.1473 100 150 255
23.2527 4.1162 0.1473 100 150 255
23.2773 4.1302 0.1473 100 150 255
23.3019 4.1442 0.1473 100 150 255
23.3266 4.1581 0.1473 100 150 255
23.3512 4.1721 0.1473 100 150 255
23.3759 4.1861 0.1473 100 150 255
23.4005 4.2000 0.1473 100 150 255
23.4252 4.2140 0.1473 100 150 255
23.4498 4.2279 0.1473 100 150 255
23.4745 4.2419 0.1473 100 150 255
23.4991 4.2559 0.1473 100 150 255
23.5238 4.2698 0.1473 100 150 255
23.5484 4.2838 0.1473 100 150 255
23.5731 4.2978 0.1473 100 150 255
23.5977 4.3117 0.1473 100 150 255
23.6224 4.3257 0.1473 100 150 255
23.6470 4.3397 0.1473 100 150 255
23.6717 4.3536 0.1473 100 150 255
23.6963 4.3676 0.1473 100 150 255
23.7210 4.3816 0.1473 100 150 255
23.7456 4.3955 0.1473 100 150 255
23.7702 4.4095 0.1473 100 150 255
23.7949 4.4234 0.1473 100 150 255
23.8195 4.4374 0.1473 100 150 255
23.8442 4.4514 0.1473 100 150 255
23.8688 4.4653 0.1473 100 150 255
23.8935 4.4793 0.1473 100 150 255
23.9181 4.4933 0.1473 100 150 255
23.9428 4.5072 0.1473 100 150 255
23.9674 4.5212 0.1473 100 150 255
23.9921 4.5352 0.1473 100 150 255
24.0167 4.5491 0.1473 100 150 255
24.0414 4.5631 0.1473 100 150 255
24.0660 4.5771 0.1473 100 150 255
24.0907 4.5910 0.1473 100 150 255
24.1153 4.6050 0.1473 100 150 255
24.1400 4.6189 0.1473 100 150 255
24.1646 4.6329 0.1473 100 150 255
24.1893 4.6469 0.1473 100 150 255
24.2139 4.6608 0.1473 100 150 255
24.2385 4.6748 0.1473 100 150 255
24.2632 4.6888 0.1473 100 150 255
24.2878 4.7027 0.1473 100 150 255
24.3125 4.7167 0.1473 100 150 255
24.3371 4.7307 0.1473 100 150 255
24.3618 4.7446 0.1473 100 150 255
24.3864 4.7586 0.1473 100 150 255
24.4111 4.7726 0.1473 100 150 255
24.4357 4.7865 0.1473 100 150 255
24.4604 4.8005 0.1473 100 150 255
24.4850 4.8144 0.1473 100 150 255
24.5097 4.8284 0.1473 100 150 255
24.5343 4.8424 0.1473 100 150 255
24.5590 4.8563 0.1473 100 150 255
24.5836 4.8703 0.1473 100 150 255
24.6083 4.8843 0.1473 100 150 255
24.6329 4.8982 0.1473 100 150 255
24.6576 4.9122 0.1473 100 150 255
24.6822 4.9262 0.1473 100 150 255
24.7068 4.9401 0.1473 100 150 255
24.7315 4.9541 0.1473 100 150 255
24.7561 4.9681 0.1473 100 150 255
24.7808 4.9820 0.1473 100 150 255
24.8054 4.9960 0.1473 100 150 255
24.8301 5.0099 0.1473 100 150 255
24.8547 5.0239 0.1473 100 150 255
24.8794 5.0379 0.1473 100 150 255
24.9040 5.0518 0.1473 100 150 255
24.9287 5.0658 0.1473 100 150 255
24.9533 5.0798 0.1473 100 150 255
24.9780 5.0937 0.1473 100 150 255
25.0026 5.1077 0.1473 100 150 255
25.0273 5.1217 0.1473 100 150 255
25.0273 5.1217 0.1473 100 150 255
25.0218 5.1314 0.1473 100 150 255
25.0163 5.1411 0.1473 100 150 255
25.0107 5.1508 0.1473 100 150 255
25.0052 5.1605 0.1473 100 150 255
24.9997 5.1702 0.1473 100 150 255
24.9942 5.1800 0.1473 100 150 255
24.9887 5.1897 0.1473 100 150 255
24.9832 5.1994 0.1473 100 150 255
24.9777 5.2091 0.1473 100 150 255
24.9722 5.2188 0.1473 100 150 255
24.9667 5.2285 0.1473 100 150 255
24.9612 5.2383 0.1473 100 150 255
24.9557 5.2480 0.1473 100 150 255
24.9502 5.2577 0.1473 100 150 255
24.9447 5.2674 0.1473 100 150 255
24.9392 5.2771 0.1473 100 150 255
24.9337 5.2869 0.1473 100 150 255
24.9282 5.2966 0.1473 100 150 255
24.9227 5.3063 0.1473 100 150 255
24.9172 5.3160 0.1473 100 150 255
24.9117 5.3257 0.1473 100 150 255
24.9061 5.3354 0.1473 100 150 255
24.9006 5.3452 0.1473 100 150 255
24.8951 5.3549 0.1473 100 150 255
24.8896 5.3646 0.1473 100 150 255
24.8841 5.3743 0.1473 100 150 255
24.8786 5.3840 0.1473 100 150 255
24.8731 5.3937 0.1473 100 150 255
24.8676 5.4035 0.1473 100 150 255
24.8621 5.4132 0.1473 100 150 255
24.8566 5.4229 0.1473 100 150 255
24.8511 5.4326 0.1473 100 150 255
24.8456 5.4423 0.1473 100 150 255
24.8401 5.4520 0.1473 100 150 255
24.8346 5.4618 0.1473 100 150 255
24.8291 5.4715 0.1473 100 150 255
24.8236 5.4812 0.1473 100 150 255
24.8181 5.4909 0.1473 100 150 255
24.8126 5.5006 0.1473 100 150 255
24.8071 5.5103 0.1473 100 150 255
24.8015 5.5201 0.1473 100 150 255
24.7960 5.5298 0.1473 100 150 255
24.7905 5.5395 0.1473 100 150 255
24.7850 5.5492 0.1473 100 150 255
24.7795 5.5589 0.1473 100 150 255
24.7740 5.5686 0.1473 100 150 255
24.7685 5.5784 0.1473 100 150 255
24.7630 5.5881 0.1473 100 150 255
24.7575 5.5978 0.1473 100 150 255
24.7520 5.6075 0.1473 100 150 255
24.7465 5.6172 0.1473 100 150 255
24.7410 5.6269 0.1473 100 150 255
24.7355 5.6367 0.1473 100 150 255
24.7300 5.6464 0.1473 100 150 255
24.7245 5.6561 0.1473 100 150 255
24.7190 5.6658 0.1473 100 150 255
24.7135 5.6755 0.1473 100 150 255
24.7080 5.6852 0.1473 100 150 255
24.7024 5.6950 0.1473 100 150 255
24.6969 5.7047 0.1473 100 150 255
24.6914 5.7144 0.1473 100 150 255
24.6859 5.7241 0.1473 100 150 255
24.6804 5.7338 0.1473 100 150 255
24.6749 5.7435 0.1473 100 150 255
24.6694 5.7533 0.1473 100 150 255
24.6639 5.7630 0.1473 100 150 255
24.6584 5.7727 0.1473 100 150 255
24.6529 5.7824 0.1473 100 150 255
24.6474 5.7921 0.1473 100 150 255
24.6419 5.8019 0.1473 100 150 255
24.6364 5.8116 0.1473 100 150 255
24.6309 5.8213 0.1473 100 150 255
24.6254 5.8310 0.1473 100 150 255
24.6199 5.8407 0.1473 100 150 255
24.6144 5.8504 0.1473 100 150 255
24.6089 5.8602 0.1473 100 150 255
24.6034 5.8699 0.1473 100 150 255
24.5978 5.8796 0.1473 100 150 255
24.5923 5.8893 0.1473 100 150 255
24.5868 5.8990 0.1473 100 150 255
24.5813 5.9087 0.1473 100 150 255
24.5758 5.9185 0.1473 100 150 255
24.5703 5.9282 0.1473 100 150 255
24.5648 5.9379 0.1473 100 150 255
24.5593 5.9476 0.1473 100 150 255
24.5538 5.9573 0.1473 100 150 255
24.5483 5.9670 0.1473 100 150 255
24.5428 5.9768 0.1473 100 150 255
24.5373 5.9865 0.1473 100 150 255
24.5318 5.9962 0.1473 100 150 255
24.5263 6.0059 0.1473 100 150 255
24.5208 6.0156 0.1473 100 150 255
24.5153 6.0253 0.1473 100 150 255
24.5098 6.0351 0.1473 100 150 255
24.5043 6.0448 0.1473 100 150 255
24.4988 6.0545 0.1473 100 150 255
24.4932 6.0642 0.1473 100 150 255
24.4877 6.0739 0.1473 100 150 255
24.4822 6.0836 0.1473 100 150 255
24.4767 6.0934 0.1473 100 150 255
24.4712 6.1031 0.1473 100 150 255
24.4657 6.1128 0.1473 100 150 255
24.4602 6.1225 0.1473 100 150 255
24.4547 6.1322 0.1473 100 150 255
24.4492 6.1419 0.1473 100 150 255
24.4437 6.1517 0.1473 100 150 255
24.4382 6.1614 0.1473 100 150 255
24.4327 6.1711 0.1473 100 150 255
24.4272 6.1808 0.1473 100 150 255
24.4217 6.1905 0.1473 100 150 255
24.4162 6.2002 0.1473 100 150 255
24.4107 6.2100 0.1473 100 150 255
24.4052 6.2197 0.1473 100 150 255
24.3997 6.2294 0.1473 100 150 255
24.3942 6.2391 0.1473 100 150 255
24.3886 6.2488 0.1473 100 150 255
24.3831 6.2586 0.1473 100 150 255
24.3776 6.2683 0.1473 100 150 255
24.3721 6.2780 0.1473 100 150 255
24.3666 6.2877 0.1473 100 150 255
24.3611 6.2974 0.1473 100 150 255
24.3556 6.3071 0.1473 100 150 255
24.3501 6.3169 0.1473 100 150 255
24.3446 6.3266 0.1473 100 150 255
24.3391 6.3363 0.1473 100 150 255
24.3336 6.3460 0.1473 100 150 255
24.3281 6.3557 0.1473 100 150 255
24.3226 6.3654 0.1473 100 150 255
24.3171 6.3752 0.1473 100 150 255
24.3116 6.3849 0.1473 100 150 255
24.3061 6.3946 0.1473 100 150 255
24.3006 6.4043 0.1473 100 150 255
24.2951 6.4140 0.1473 100 150 255
24.2896 6.4237 0.1473 100 150 255
24.2840 6.4335 0.1473 100 150 255
24.2785 6.4432 0.1473 100 150 255
24.2730 6.4529 0.1473 100 150 255
24.2675 6.4626 0.1473 100 150 255
24.2620 6.4723 0.1473 100 150 255
24.2565 6.4820 0.1473 100 150 255
24.2510 6.4918 0.1473 100 150 255
24.2455 6.5015 0.1473 100 150 255
24.2400 6.5112 0.1473 100 150 255
24.2345 6.5209 0.1473 100 150 255
24.2290 6.5306 0.1473 100 150 255
24.2235 6.5403 0.1473 100 150 255
24.2180 6.5501 0.1473 100 150 255
24.2125 6.5598 0.1473 100 150 255
24.2070 6.5695 0.1473 100 150 255
24.2015 6.5792 0.1473 100 150 255
24.1960 6.5889 0.1473 100 150 255
24.1905 6.5986 0.1473 100 150 255
24.1849 6.6084 0.1473 100 150 255
24.1794 6.6181 0.1473 100 150 255
24.1739 6.6278 0.1473 100 150 255
24.1684 6.6375 0.1473 100 150 255
24.1629 6.6472 0.1473 100 150 255
24.1574 6.6569 0.1473 100 150 255
24.1519 6.6667 0.1473 100 150 255
24.1464 6.6764 0.1473 100 150 255
24.1409 6.6861 0.1473 100 150 255
24.1354 6.6958 0.1473 100 150 255
24.1299 6.7055 0.1473 100 150 255
24.1244 6.7152 0.1473 100 150 255
24.1189 6.7250 0.1473 100 150 255
24.1189 6.7250 0.1473 100 150 255
24.0942 6.7110 0.1473 100 150 255
24.0696 6.6970 0.1473 100 150 255
24.0449 6.6831 0.1473 100 150 255
24.0203 6.6691 0.1473 100 150 255
23.9956 6.6551 0.1473 100 150 255
23.9710 6.6412 0.1473 100 150 255
23.9464 6.6272 0.1473 100 150 255
23.9217 6.6133 0.1473 100 150 255
23.8971 6.5993 0.1473 100 150 255
23.8724 6.5853 0.1473 100 150 255
23.8478 6.5714 0.1473 100 150 255
23.8231 6.5574 0.1473 100 150 255
23.7985 6.5434 0.1473 100 150 255
23.7738 6.5295 0.1473 100 150 255
23.7492 6.5155 0.1473 100 150 255
23.7245 6.5015 0.1473 100 150 255
23.6999 6.4876 0.1473 100 150 255
23.6752 6.4736 0.1473 100 150 255
23.6506 6.4596 0.1473 100 150 255
23.6259 6.4457 0.1473 100 150 255
23.6013 6.4317 0.1473 100 150 255
23.5766 6.4177 0.1473 100 150 255
23.5520 6.4038 0.1473 100 150 255
23.5273 6.3898 0.1473 100 150 255
23.5027 6.3759 0.1473 100 150 255
23.4781 6.3619 0.1473 100 150 255
23.4534 6.3479 0.1473 100 150 255
23.4288 6.3340 0.1473 100 150 255
23.4041 6.3200 0.1473 100 150 255
23.3795 6.3060 0.1473 100 150 255
23.3548 6.2921 0.1473 100 150 255
23.3302 6.2781 0.1473 100 150 255
23.3055 6.2641 0.1473 100 150 255
23.2809 6.2502 0.1473 100 150 255
23.2562 6.2362 0.1473 100 150 255
23.2316 6.2222 0.1473 100 150 255
23.2069 6.2083 0.1473 100 150 255
23.1823 6.1943 0.1473 100 150 255
23.1576 6.1804 0.1473 100 150 255
23.1330 6.1664 0.1473 100 150 255
23.1083 6.1524 0.1473 100 150 255
23.0837 6.1385 0.1473 100 150 255
23.0590 6.1245 0.1473 100 150 255
23.0344 6.1105 0.1473 100 150 255
23.0098 6.0966 0.1473 100 150 255
22.9851 6.0826 0.1473 100 150 255
22.9605 6.0686 0.1473 100 150 255
22.9358 6.0547 0.1473 100 150 255
22.9112 6.0407 0.1473 100 150 255
22.8865 6.0267 0.1473 100 150 255
22.8619 6.0128 0.1473 100 150 255
22.8372 5.9988 0.1473 100 150 255
22.8126 5.9849 0.1473 100 150 255
22.7879 5.9709 0.1473 100 150 255
22.7633 5.9569 0.1473 100 150 255
22.7386 5.9430 0.1473 100 150 255
22.7140 5.9290 0.1473 100 150 255
22.6893 5.9150 0.1473 100 150 255
22.6647 5.9011 0.1473 100 150 255
22.6400 5.8871 0.1473 100 150 255
22.6154 5.8731 0.1473 100 150 255
22.5907 5.8592 0.1473 100 150 255
22.5661 5.8452 0.1473 100 150 255
22.5415 5.8312 0.1473 100 150 255
22.5168 5.8173 0.1473 100 150 255
22.4922 5.8033 0.1473 100 150 255
22.4675 5.7894 0.1473 100 150 255
22.4429 5.7754 0.1473 100 150 255
22.4182 5.7614 0.1473 100 150 255
22.3936 5.7475 0.1473 100 150 255
22.3689 5.7335 0.1473 100 150 255
22.3443 5.7195 0.1473 100 150 255
22.3196 5.7056 0.1473 100 150 255
22.2950 5.6916 0.1473 100 150 255
22.2703 5.6776 0.1473 100 150 255
22.2457 5.6637 0.1473 100 150 255
22.2210 5.6497 0.1473 100 150 255
22.1964 5.6357 0.1473 100 150 255
22.1717 5.6218 0.1473 100 150 255
22.1471 5.6078 0.1473 100 150 255
22.1224 5.5939 0.1473 100 150 255
22.0978 5.5799 0.1473 100 150 255
22.0732 5.5659 0.1473 100 150 255
22.0485 5.5520 0.1473 100 150 255
22.0239 5.5380 0.1473 100 150 255
21.9992 5.5240 0.1473 100 150 255
21.9746 5.5101 0.1473 100 150 255
21.9499 5.4961 0.1473 100 150 255
21.9253 5.4821 0.1473 100 150 255
21.9006 5.4682 0.1473 100 150 255
21.8760 5.4542 0.1473 100 150 255
21.8513 5.4402 0.1473 100 150 255
21.8267 5.4263 0.1473 100 150 255
21.8020 5.4123 0.1473 100 150 255
21.7774 5.3984 0.1473 100 150 255
21.7527 5.3844 0.1473 100 150 255
21.7281 5.3704 0.1473 100 150 255
21.7034 5.3565 0.1473 100 150 255
21.6788 5.3425 0.1473 100 150 255
21.6542 5.3285 0.1473 100 150 255
21.6295 5.3146 0.1473 100 150 255
21.6049 5.3006 0.1473 100 150 255
21.5802 5.2866 0.1473 100 150 255
21.5556 5.2727 0.1473 100 150 255
21.5309 5.2587 0.1473 100 150 255
21.5063 5.2447 0.1473 100 150 255
21.4816 5.2308 0.1473 100 150 255
21.4570 5.2168 0.1473 100 150 255
21.4323 5.2029 0.1473 100 150 255
21.4077 5.1889 0.1473 100 150 255
21.3830 5.1749 0.1473 100 150 255
21.3584 5.1610 0.1473 100 150 255
21.3337 5.1470 0.1473 100 150 255
21.3091 5.1330 0.1473 100 150 255
21.2844 5.1191 0.1473 100 150 255
21.2598 5.1051 0.1473 100 150 255
21.2351 5.0911 0.1473 100 150 255
21.2105 5.0772 0.1473 100 150 255
21.1859 5.0632 0.1473 100 150 255
21.1612 5.0492 0.1473 100 150 255
21.1366 5.0353 0.1473 100 150 255
21.1119 5.0213 0.1473 100 150 255
21.0873 5.0073 0.1473 100 150 255
21.0626 4.9934 0.1473 100 150 255
21.0380 4.9794 0.1473 100 150 255
21.0133 4.9655 0.1473 100 150 255
20.9887 4.9515 0.1473 100 150 255
20.9640 4.9375 0.1473 100 150 255
20.9394 4.9236 0.1473 100 150 255
20.9147 4.9096 0.1473 100 150 255
20.8901 4.8956 0.1473 100 150 255
20.8654 4.8817 0.1473 100 150 255
20.8408 4.8677 0.1473 100 150 255
20.8161 4.8537 0.1473 100 150 255
20.7915 4.8398 0.1473 100 150 255
20.7668 4.8258 0.1473 100 150 255
20.7422 4.8118 0.1473 100 150 255
20.7176 4.7979 0.1473 100 150 255
20.6929 4.7839 0.1473 100 150 255
20.6683 4.7700 0.1473 100 150 255
20.6436 4.7560 0.1473 100 150 255
20.6190 4.7420 0.1473 100 150 255
20.5943 4.7281 0.1473 100 150 255
20.5697 4.7141 0.1473 100 150 255
20.5450 4.7001 0.1473 100 150 255
20.5204 4.6862 0.1473 100 150 255
20.4957 4.6722 0.1473 100 150 255
20.4711 4.6582 0.1473 100 150 255
20.4464 4.6443 0.1473 100 150 255
20.4218 4.6303 0.1473 100 150 255
20.3971 4.6163 0.1473 100 150 255
20.3725 4.6024 0.1473 100 150 255
20.3478 4.5884 0.1473 100 150 255
20.3232 4.5745 0.1473 100 150 255
20.2985 4.5605 0.1473 100 150 255
20.2739 4.5465 0.1473 100 150 255
20.2493 4.5326 0.1473 100 150 255
20.2246 4.5186 0.1473 100 150 255
20.2000 4.5046 0.1473 100 150 255
20.1753 4.4907 0.1473 100 150 255
20.1507 4.4767 0.1473 100 150 255
20.1260 4.4627 0.1473 100 150 255
20.1014 4.4488 0.1473 100 150 255
20.0767 4.4348 0.1473 100 150 255
20.0521 4.4208 0.1473 100 150 255
20.0521 4.4208 0.1473 100 150 255
20.0576 4.4111 0.1473 100 150 255
20.0631 4.4014 0.1473 100 150 255
20.0686 4.3917 0.1473 100 150 255
20.0741 4.3820 0.1473 100 150 255
20.0796 4.3723 0.1473 100 150 255
20.0851 4.3625 0.1473 100 150 255
20.0906 4.3528 0.1473 100 150 255
20.0961 4.3431 0.1473 100 150 255
20.1016 4.3334 0.1473 100 150 255
20.1071 4.3237 0.1473 100 150 255
20.1126 4.3140 0.1473 100 150 255
20.1181 4.3042 0.1473 100 150 255
20.1236 4.2945 0.1473 100 150 255
20.1291 4.2848 0.1473 100 150 255
20.1347 4.2751 0.1473 100 150 255
20.1402 4.2654 0.1473 100 150 255
20.1457 4.2557 0.1473 100 150 255
20.1512 4.2459 0.1473 100 150 255
20.1567 4.2362 0.1473 100 150 255
20.1622 4.2265 0.1473 100 150 255
20.1677 4.2168 0.1473 100 150 255
20.1732 4.2071 0.1473 100 150 255
20.1787 4.1974 0.1473 100 150 255
20.1842 4.1876 0.1473 100 150 255
20.1897 4.1779 0.1473 100 150 255
20.1952 4.1682 0.1473 100 150 255
20.2007 4.1585 0.1473 100 150 255
20.2062 4.1488 0.1473 100 150 255
20.2117 4.1391 0.1473 100 150 255
20.2172 4.1293 0.1473 100 150 255
20.2227 4.1196 0.1473 100 150 255
20.2282 4.1099 0.1473 100 150 255
20.2337 4.1002 0.1473 100 150 255
20.2393 4.0905 0.1473 100 150 255
20.2448 4.0808 0.1473 100 150 255
20.2503 4.0710 0.1473 100 150 255
20.2558 4.0613 0.1473 100 150 255
20.2613 4.0516 0.1473 100 150 255
20.2668 4.0419 0.1473 100 150 255
20.2723 4.0322 0.1473 100 150 255
20.2778 4.0224 0.1473 100 150 255
20.2833 4.0127 0.1473 100 150 255
20.2888 4.0030 0.1473 100 150 255
20.2943 3.9933 0.1473 100 150 255
20.2998 3.9836 0.1473 100 150 255
20.3053 3.9739 0.1473 100 150 255
20.3108 3.9641 0.1473 100 150 255
20.3163 3.9544 0.1473 100 150 255
20.3218 3.9447 0.1473 100 150 255
20.3273 3.9350 0.1473 100 150 255
20.3328 3.9253 0.1473 100 150 255
20.3383 3.9156 0.1473 100 150 255
20.3439 3.9058 0.1473 100 150 255
20.3494 3.8961 0.1473 100 150 255
20.3549 3.8864 0.1473 100 150 255
20.3604 3.8767 0.1473 100 150 255
20.3659 3.8670 0.1473 100 150 255
20.3714 3.8573 0.1473 100 150 255
20.3769 3.8475 0.1473 100 150 255
20.3824 3.8378 0.1473 100 150 255
20.3879 3.8281 0.1473 100 150 255
20.3934 3.8184 0.1473 100 150 255
20.3989 3.8087 0.1473 100 150 255
20.4044 3.7990 0.1473 100 150 255
20.4099 3.7892 0.1473 100 150 255
20.4154 3.7795 0.1473 100 150 255
20.4209 3.7698 0.1473 100 150 255
20.4264 3.7601 0.1473 100 150 255
20.4319 3.7504 0.1473 100 150 255
20.4374 3.7407 0.1473 100 150 255
20.4429 3.7309 0.1473 100 150 255
20.4485 3.7212 0.1473 100 150 255
20.4540 3.7115 0.1473 100 150 255
20.4595 3.7018 0.1473 100 150 255
20.4650 3.6921 0.1473 100 150 255
20.4705 3.6824 0.1473 100 150 255
20.4760 3.6726 0.1473 100 150 255
20.4815 3.6629 0.1473 100 150 255
20.4870 3.6532 0.1473 100 150 255
20.4925 3.6435 0.1473 100 150 255
20.4980 3.6338 0.1473 100 150 255
20.5035 3.6241 0.1473 100 150 255
20.5090 3.6143 0.1473 100 150 255
20.5145 3.6046 0.1473 100 150 255
20.5200 3.5949 0.1473 100 150 255
20.5255 3.5852 0.1473 100 150 255
20.5310 3.5755 0.1473 100 150 255
20.5365 3.5658 0.1473 100 150 255
20.5420 3.5560 0.1473 100 150 255
20.5475 3.5463 0.1473 100 150 255
20.5531 3.5366 0.1473 100 150 255
20.5586 3.5269 0.1473 100 150 255
20.5641 3.5172 0.1473 100 150 255
20.5696 3.5074 0.1473 100 150 255
20.5751 3.4977 0.1473 100 150 255
20.5806 3.4880 0.1473 100 150 255
20.5861 3.4783 0.1473 100 150 255
20.5916 3.4686 0.1473 100 150 255
20.5971 3.4589 0.1473 100 150 255
20.6026 3.4491 0.1473 100 150 255
20.6081 3.4394 0.1473 100 150 255
20.6136 3.4297 0.1473 100 150 255
20.6191 3.4200 0.1473 100 150 255
20.6246 3.4103 0.1473 100 150 255
20.6301 3.4006 0.1473 100 150 255
20.6356 3.3908 0.1473 100 150 255
20.6411 3.3811 0.1473 100 150 255
20.6466 3.3714 0.1473 100 150 255
20.6521 3.3617 0.1473 100 150 255
20.6577 3.3520 0.1473 100 150 255
20.6632 3.3423 0.1473 100 150 255
20.6687 3.3325 0.1473 100 150 255
20.6742 3.3228 0.1473 100 150 255
20.6797 3.3131 0.1473 100 150 255
20.6852 3.3034 0.1473 100 150 255
20.6907 3.2937 0.1473 100 150 255
20.6962 3.2840 0.1473 100 150 255
20.7017 3.2742 0.1473 100 150 255
20.7072 3.2645 0.1473 100 150 255
20.7127 3.2548 0.1473 100 150 255
20.7182 3.2451 0.1473 100 150 255
20.7237 3.2354 0.1473 100 150 255
20.7292 3.2257 0.1473 100 150 255
20.7347 3.2159 0.1473 100 150 255
20.7402 3.2062 0.1473 100 150 255
20.7457 3.1965 0.1473 100 150 255
20.7512 3.1868 0.1473 100 150 255
20.7568 3.1771 0.1473 100 150 255
20.7623 3.1674 0.1473 100 150 255
20.7678 3.1576 0.1473 100 150 255
20.7733 3.1479 0.1473 100 150 255
20.7788 3.1382 0.1473 100 150 255
20.7843 3.1285 0.1473 100 150 255
20.7898 3.1188 0.1473 100 150 255
20.7953 3.1091 0.1473 100 150 255
20.8008 3.0993 0.1473 100 150 255
20.8063 3.0896 0.1473 100 150 255
20.8118 3.0799 0.1473 100 150 255
20.8173 3.0702 0.1473 100 150 255
20.8228 3.0605 0.1473 100 150 255
20.8283 3.0508 0.1473 100 150 255
20.8338 3.0410 0.1473 100 150 255
20.8393 3.0313 0.1473 100 150 255
20.8448 3.0216 0.1473 100 150 255
20.8503 3.0119 0.1473 100 150 255
20.8558 3.0022 0.1473 100 150 255
20.8614 2.9924 0.1473 100 150 255
20.8669 2.9827 0.1473 100 150 255
20.8724 2.9730 0.1473 100 150 255
20.8779 2.9633 0.1473 100 150 255
20.8834 2.9536 0.1473 100 150 255
20.8889 2.9439 0.1473 100 150 255
20.8944 2.9341 0.1473 100 150 255
20.8999 2.9244 0.1473 100 150 255
20.9054 2.9147 0.1473 100 150 255
20.9109 2.9050 0.1473 100 150 255
20.9164 2.8953 0.1473 100 150 255
20.9219 2.8856 0.1473 100 150 255
20.9274 2.8758 0.1473 100 150 255
20.9329 2.8661 0.1473 100 150 255
20.9384 2.8564 0.1473 100 150 255
20.9439 2.8467 0.1473 100 150 255
20.9494 2.8370 0.1473 100 150 255
20.9549 2.8273 0.1473 100 150 255
20.9604 2.8175 0.1473 100 150 255
20.9604 2.8175 2.1841 100 150 255
20.9851 2.8315 2.1841 100 150 255
21.0097 2.8455 2.1841 100 150 255
