ply
format ascii 1.0
element vertex 1449
property float x
property float y
property float z
property uchar red
property uchar green
property uchar blue
end_header
33.6156 14.1247 0.2636 255 40 40
33.6167 14.1222 0.2636 255 40 40
33.6178 14.1198 0.2636 255 40 40
33.6190 14.1173 0.2636 255 40 40
33.6201 14.1149 0.2636 255 40 40
33.6212 14.1124 0.2636 255 40 40
33.6224 14.1099 0.2636 255 40 40
33.6235 14.1075 0.2636 255 40 40
33.6246 14.1050 0.2636 255 40 40
33.6258 14.1026 0.2636 255 40 40
33.6269 14.1001 0.2636 255 40 40
33.6281 14.0977 0.2636 255 40 40
33.6292 14.0952 0.2636 255 40 40
33.6303 14.0928 0.2636 255 40 40
33.6315 14.0903 0.2636 255 40 40
33.6326 14.0879 0.2636 255 40 40
33.6326 14.0879 0.2636 255 40 40
33.6355 14.0892 0.2636 255 40 40
33.6384 14.0905 0.2636 255 40 40
33.6413 14.0919 0.2636 255 40 40
33.6442 14.0932 0.2636 255 40 40
33.6471 14.0945 0.2636 255 40 40
33.6500 14.0959 0.2636 255 40 40
33.6528 14.0972 0.2636 255 40 40
33.6557 14.0986 0.2636 255 40 40
33.6586 14.0999 0.2636 255 40 40
33.6615 14.1012 0.2636 255 40 40
33.6644 14.1026 0.2636 255 40 40
33.6673 14.1039 0.2636 255 40 40
33.6702 14.1053 0.2636 255 40 40
33.6731 14.1066 0.2636 255 40 40
33.6760 14.1079 0.2636 255 40 40
33.6789 14.1093 0.2636 255 40 40
33.6818 14.1106 0.2636 255 40 40
33.6847 14.1120 0.2636 255 40 40
33.6875 14.1133 0.2636 255 40 40
33.6904 14.1146 0.2636 255 40 40
33.6933 14.1160 0.2636 255 40 40
33.6962 14.1173 0.2636 255 40 40
33.6991 14.1186 0.2636 255 40 40
33.7020 14.1200 0.2636 255 40 40
33.7049 14.1213 0.2636 255 40 40
33.7078 14.1227 0.2636 255 40 40
33.7107 14.1240 0.2636 255 40 40
33.7136 14.1253 0.2636 255 40 40
33.7165 14.1267 0.2636 255 40 40
33.7194 14.1280 0.2636 255 40 40
33.7223 14.1294 0.2636 255 40 40
33.7251 14.1307 0.2636 255 40 40
33.7280 14.1320 0.2636 255 40 40
33.7309 14.1334 0.2636 255 40 40
33.7338 14.1347 0.2636 255 40 40
33.7367 14.1360 0.2636 255 40 40
33.7396 14.1374 0.2636 255 40 40
33.7425 14.1387 0.2636 255 40 40
33.7454 14.1401 0.2636 255 40 40
33.7483 14.1414 0.2636 255 40 40
33.7512 14.1427 0.2636 255 40 40
33.7541 14.1441 0.2636 255 40 40
33.7570 14.1454 0.2636 255 40 40
33.7599 14.1468 0.2636 255 40 40
33.7627 14.1481 0.2636 255 40 40
33.7656 14.1494 0.2636 255 40 40
33.7685 14.1508 0.2636 255 40 40
33.7714 14.1521 0.2636 255 40 40
33.7743 14.1535 0.2636 255 40 40
33.7772 14.1548 0.2636 255 40 40
33.7801 14.1561 0.2636 255 40 40
33.7830 14.1575 0.2636 255 40 40
33.7859 14.1588 0.2636 255 40 40
33.7888 14.1601 0.2636 255 40 40
33.7917 14.1615 0.2636 255 40 40
33.7946 14.1628 0.2636 255 40 40
33.7975 14.1642 0.2636 255 40 40
33.8003 14.1655 0.2636 255 40 40
33.8032 14.1668 0.2636 255 40 40
33.8061 14.1682 0.2636 255 40 40
33.8090 14.1695 0.2636 255 40 40
33.8119 14.1709 0.2636 255 40 40
33.8148 14.1722 0.2636 255 40 40
33.8177 14.1735 0.2636 255 40 40
33.8206 14.1749 0.2636 255 40 40
33.8235 14.1762 0.2636 255 40 40
33.8264 14.1775 0.2636 255 40 40
33.8293 14.1789 0.2636 255 40 40
33.8322 14.1802 0.2636 255 40 40
33.8350 14.1816 0.2636 255 40 40
33.8379 14.1829 0.2636 255 40 40
33.8408 14.1842 0.2636 255 40 40
33.8437 14.1856 0.2636 255 40 40
33.8466 14.1869 0.2636 255 40 40
33.8495 14.1883 0.2636 255 40 40
33.8524 14.1896 0.2636 255 40 40
33.8553 14.1909 0.2636 255 40 40
33.8582 14.1923 0.2636 255 40 40
33.8611 14.1936 0.2636 255 40 40
33.8640 14.1950 0.2636 255 40 40
33.8669 14.1963 0.2636 255 40 40
33.8698 14.1976 0.2636 255 40 40
33.8727 14.1990 0.2636 255 40 40
33.8755 14.2003 0.2636 255 40 40
33.8784 14.2016 0.2636 255 40 40
33.8813 14.2030 0.2636 255 40 40
33.8842 14.2043 0.2636 255 40 40
33.8871 14.2057 0.2636 255 40 40
33.8900 14.2070 0.2636 255 40 40
33.8929 14.2083 0.2636 255 40 40
33.8958 14.2097 0.2636 255 40 40
33.8987 14.2110 0.2636 255 40 40
33.9016 14.2124 0.2636 255 40 40
33.9045 14.2137 0.2636 255 40 40
33.9074 14.2150 0.2636 255 40 40
33.9102 14.2164 0.2636 255 40 40
33.9131 14.2177 0.2636 255 40 40
33.9160 14.2190 0.2636 255 40 40
33.9189 14.2204 0.2636 255 40 40
33.9218 14.2217 0.2636 255 40 40
33.9247 14.2231 0.2636 255 40 40
33.9276 14.2244 0.2636 255 40 40
33.9305 14.2257 0.2636 255 40 40
33.9334 14.2271 0.2636 255 40 40
33.9363 14.2284 0.2636 255 40 40
33.9392 14.2298 0.2636 255 40 40
33.9421 14.2311 0.2636 255 40 40
33.9450 14.2324 0.2636 255 40 40
33.9478 14.2338 0.2636 255 40 40
33.9507 14.2351 0.2636 255 40 40
33.9536 14.2365 0.2636 255 40 40
33.9565 14.2378 0.2636 255 40 40
33.9594 14.2391 0.2636 255 40 40
33.9623 14.2405 0.2636 255 40 40
33.9652 14.2418 0.2636 255 40 40
33.9681 14.2431 0.2636 255 40 40
33.9710 14.2445 0.2636 255 40 40
33.9739 14.2458 0.2636 255 40 40
33.9768 14.2472 0.2636 255 40 40
33.9797 14.2485 0.2636 255 40 40
33.9826 14.2498 0.2636 255 40 40
33.9854 14.2512 0.2636 255 40 40
33.9883 14.2525 0.2636 255 40 40
33.9912 14.2539 0.2636 255 40 40
33.9941 14.2552 0.2636 255 40 40
33.9970 14.2565 0.2636 255 40 40
33.9999 14.2579 0.2636 255 40 40
34.0028 14.2592 0.2636 255 40 40
34.0057 14.2605 0.2636 255 40 40
34.0086 14.2619 0.2636 255 40 40
34.0115 14.2632 0.2636 255 40 40
34.0144 14.2646 0.2636 255 40 40
34.0173 14.2659 0.2636 255 40 40
34.0201 14.2672 0.2636 255 40 40
34.0230 14.2686 0.2636 255 40 40
34.0259 14.2699 0.2636 255 40 40
34.0288 14.2713 0.2636 255 40 40
34.0317 14.2726 0.2636 255 40 40
34.0346 14.2739 0.2636 255 40 40
34.0375 14.2753 0.2636 255 40 40
34.0404 14.2766 0.2636 255 40 40
34.0433 14.2780 0.2636 255 40 40
34.0462 14.2793 0.2636 255 40 40
34.0491 14.2806 0.2636 255 40 40
34.0520 14.2820 0.2636 255 40 40
34.0549 14.2833 0.2636 255 40 40
34.0577 14.2846 0.2636 255 40 40
34.0606 14.2860 0.2636 255 40 40
34.0635 14.2873 0.2636 255 40 40
34.0664 14.2887 0.2636 255 40 40
34.0693 14.2900 0.2636 255 40 40
34.0722 14.2913 0.2636 255 40 40
34.0751 14.2927 0.2636 255 40 40
34.0780 14.2940 0.2636 255 40 40
34.0809 14.2954 0.2636 255 40 40
34.0838 14.2967 0.2636 255 40 40
34.0867 14.2980 0.2636 255 40 40
34.0896 14.2994 0.2636 255 40 40
34.0925 14.3007 0.2636 255 40 40
34.0953 14.3020 0.2636 255 40 40
34.0982 14.3034 0.2636 255 40 40
34.1011 14.3047 0.2636 255 40 40
34.1040 14.3061 0.2636 255 40 40
34.1069 14.3074 0.2636 255 40 40
34.1098 14.3087 0.2636 255 40 40
34.1098 14.3087 0.2636 255 40 40
34.1087 14.3112 0.2636 255 40 40
34.1075 14.3137 0.2636 255 40 40
34.1064 14.3161 0.2636 255 40 40
34.1053 14.3186 0.2636 255 40 40
34.1041 14.3210 0.2636 255 40 40
34.1030 14.3235 0.2636 255 40 40
34.1019 14.3259 0.2636 255 40 40
34.1007 14.3284 0.2636 255 40 40
34.0996 14.3308 0.2636 255 40 40
34.0984 14.3333 0.2636 255 40 40
34.0973 14.3357 0.2636 255 40 40
34.0962 14.3382 0.2636 255 40 40
34.0950 14.3406 0.2636 255 40 40
34.0939 14.3431 0.2636 255 40 40
34.0928 14.3456 0.2636 255 40 40
34.0916 14.3480 0.2636 255 40 40
34.0905 14.3505 0.2636 255 40 40
34.0894 14.3529 0.2636 255 40 40
34.0882 14.3554 0.2636 255 40 40
34.0871 14.3578 0.2636 255 40 40
34.0859 14.3603 0.2636 255 40 40
34.0848 14.3627 0.2636 255 40 40
34.0837 14.3652 0.2636 255 40 40
34.0825 14.3676 0.2636 255 40 40
34.0814 14.3701 0.2636 255 40 40
34.0803 14.3726 0.2636 255 40 40
34.0791 14.3750 0.2636 255 40 40
34.0780 14.3775 0.2636 255 40 40
34.0769 14.3799 0.2636 255 40 40
34.0757 14.3824 0.2636 255 40 40
34.0746 14.3848 0.2636 255 40 40
34.0735 14.3873 0.2636 255 40 40
34.0723 14.3897 0.2636 255 40 40
34.0712 14.3922 0.2636 255 40 40
34.0700 14.3946 0.2636 255 40 40
34.0689 14.3971 0.2636 255 40 40
34.0678 14.3995 0.2636 255 40 40
34.0666 14.4020 0.2636 255 40 40
34.0655 14.4045 0.2636 255 40 40
34.0644 14.4069 0.2636 255 40 40
34.0632 14.4094 0.2636 255 40 40
34.0621 14.4118 0.2636 255 40 40
34.0610 14.4143 0.2636 255 40 40
34.0598 14.4167 0.2636 255 40 40
34.0587 14.4192 0.2636 255 40 40
34.0575 14.4216 0.2636 255 40 40
34.0564 14.4241 0.2636 255 40 40
34.0553 14.4265 0.2636 255 40 40
34.0541 14.4290 0.2636 255 40 40
34.0530 14.4315 0.2636 255 40 40
34.0519 14.4339 0.2636 255 40 40
34.0507 14.4364 0.2636 255 40 40
34.0496 14.4388 0.2636 255 40 40
34.0485 14.4413 0.2636 255 40 40
34.0473 14.4437 0.2636 255 40 40
34.0462 14.4462 0.2636 255 40 40
34.0451 14.4486 0.2636 255 40 40
34.0439 14.4511 0.2636 255 40 40
34.0428 14.4535 0.2636 255 40 40
34.0416 14.4560 0.2636 255 40 40
34.0405 14.4585 0.2636 255 40 40
34.0394 14.4609 0.2636 255 40 40
34.0382 14.4634 0.2636 255 40 40
34.0371 14.4658 0.2636 255 40 40
34.0360 14.4683 0.2636 255 40 40
34.0348 14.4707 0.2636 255 40 40
34.0337 14.4732 0.2636 255 40 40
34.0326 14.4756 0.2636 255 40 40
34.0314 14.4781 0.2636 255 40 40
34.0303 14.4805 0.2636 255 40 40
34.0291 14.4830 0.2636 255 40 40
34.0280 14.4854 0.2636 255 40 40
34.0269 14.4879 0.2636 255 40 40
34.0257 14.4904 0.2636 255 40 40
34.0246 14.4928 0.2636 255 40 40
34.0235 14.4953 0.2636 255 40 40
34.0223 14.4977 0.2636 255 40 40
34.0212 14.5002 0.2636 255 40 40
34.0201 14.5026 0.2636 255 40 40
34.0189 14.5051 0.2636 255 40 40
34.0178 14.5075 0.2636 255 40 40
34.0167 14.5100 0.2636 255 40 40
34.0155 14.5124 0.2636 255 40 40
34.0144 14.5149 0.2636 255 40 40
34.0132 14.5174 0.2636 255 40 40
34.0121 14.5198 0.2636 255 40 40
34.0110 14.5223 0.2636 255 40 40
34.0098 14.5247 0.2636 255 40 40
34.0087 14.5272 0.2636 255 40 40
34.0076 14.5296 0.2636 255 40 40
34.0064 14.5321 0.2636 255 40 40
34.0053 14.5345 0.2636 255 40 40
34.0042 14.5370 0.2636 255 40 40
34.0030 14.5394 0.2636 255 40 40
34.0019 14.5419 0.2636 255 40 40
34.0007 14.5444 0.2636 255 40 40
33.9996 14.5468 0.2636 255 40 40
33.9985 14.5493 0.2636 255 40 40
33.9973 14.5517 0.2636 255 40 40
33.9962 14.5542 0.2636 255 40 40
33.9951 14.5566 0.2636 255 40 40
33.9939 14.5591 0.2636 255 40 40
33.9928 14.5615 0.2636 255 40 40
33.9917 14.5640 0.2636 255 40 40
33.9905 14.5664 0.2636 255 40 40
33.9894 14.5689 0.2636 255 40 40
33.9883 14.5713 0.2636 255 40 40
33.9871 14.5738 0.2636 255 40 40
33.9860 14.5763 0.2636 255 40 40
33.9848 14.5787 0.2636 255 40 40
33.9837 14.5812 0.2636 255 40 40
33.9826 14.5836 0.2636 255 40 40
33.9814 14.5861 0.2636 255 40 40
33.9803 14.5885 0.2636 255 40 40
33.9792 14.5910 0.2636 255 40 40
33.9780 14.5934 0.2636 255 40 40
33.9769 14.5959 0.2636 255 40 40
33.9758 14.5983 0.2636 255 40 40
33.9746 14.6008 0.2636 255 40 40
33.9735 14.6033 0.2636 255 40 40
33.9723 14.6057 0.2636 255 40 40
33.9712 14.6082 0.2636 255 40 40
33.9701 14.6106 0.2636 255 40 40
33.9689 14.6131 0.2636 255 40 40
33.9678 14.6155 0.2636 255 40 40
33.9667 14.6180 0.2636 255 40 40
33.9655 14.6204 0.2636 255 40 40
33.9644 14.6229 0.2636 255 40 40
33.9633 14.6253 0.2636 255 40 40
33.9621 14.6278 0.2636 255 40 40
33.9610 14.6302 0.2636 255 40 40
33.9599 14.6327 0.2636 255 40 40
33.9587 14.6352 0.2636 255 40 40
33.9576 14.6376 0.2636 255 40 40
33.9564 14.6401 0.2636 255 40 40
33.9553 14.6425 0.2636 255 40 40
33.9542 14.6450 0.2636 255 40 40
33.9530 14.6474 0.2636 255 40 40
33.9519 14.6499 0.2636 255 40 40
33.9508 14.6523 0.2636 255 40 40
33.9496 14.6548 0.2636 255 40 40
33.9485 14.6572 0.2636 255 40 40
33.9474 14.6597 0.2636 255 40 40
33.9462 14.6622 0.2636 255 40 40
33.9451 14.6646 0.2636 255 40 40
33.9439 14.6671 0.2636 255 40 40
33.9428 14.6695 0.2636 255 40 40
33.9417 14.6720 0.2636 255 40 40
33.9405 14.6744 0.2636 255 40 40
33.9394 14.6769 0.2636 255 40 40
33.9383 14.6793 0.2636 255 40 40
33.9371 14.6818 0.2636 255 40 40
33.9360 14.6842 0.2636 255 40 40
33.9349 14.6867 0.2636 255 40 40
33.9337 14.6892 0.2636 255 40 40
33.9326 14.6916 0.2636 255 40 40
33.9314 14.6941 0.2636 255 40 40
33.9303 14.6965 0.2636 255 40 40
33.9292 14.6990 0.2636 255 40 40
33.9280 14.7014 0.2636 255 40 40
33.9269 14.7039 0.2636 255 40 40
33.9258 14.7063 0.2636 255 40 40
33.9246 14.7088 0.2636 255 40 40
33.9235 14.7112 0.2636 255 40 40
33.9224 14.7137 0.2636 255 40 40
33.9224 14.7137 0.2636 255 40 40
33.9195 14.7124 0.2636 255 40 40
33.9166 14.7110 0.2636 255 40 40
33.9137 14.7097 0.2636 255 40 40
33.9108 14.7083 0.2636 255 40 40
33.9079 14.7070 0.2636 255 40 40
33.9050 14.7057 0.2636 255 40 40
33.9021 14.7043 0.2636 255 40 40
33.8992 14.7030 0.2636 255 40 40
33.8963 14.7016 0.2636 255 40 40
33.8934 14.7003 0.2636 255 40 40
33.8905 14.6990 0.2636 255 40 40
33.8877 14.6976 0.2636 255 40 40
33.8848 14.6963 0.2636 255 40 40
33.8819 14.6950 0.2636 255 40 40
33.8790 14.6936 0.2636 255 40 40
33.8761 14.6923 0.2636 255 40 40
33.8732 14.6909 0.2636 255 40 40
33.8703 14.6896 0.2636 255 40 40
33.8674 14.6883 0.2636 255 40 40
33.8645 14.6869 0.2636 255 40 40
33.8616 14.6856 0.2636 255 40 40
33.8587 14.6842 0.2636 255 40 40
33.8558 14.6829 0.2636 255 40 40
33.8530 14.6816 0.2636 255 40 40
33.8501 14.6802 0.2636 255 40 40
33.8472 14.6789 0.2636 255 40 40
33.8443 14.6775 0.2636 255 40 40
33.8414 14.6762 0.2636 255 40 40
33.8385 14.6749 0.2636 255 40 40
33.8356 14.6735 0.2636 255 40 40
33.8327 14.6722 0.2636 255 40 40
33.8298 14.6709 0.2636 255 40 40
33.8269 14.6695 0.2636 255 40 40
33.8240 14.6682 0.2636 255 40 40
33.8211 14.6668 0.2636 255 40 40
33.8182 14.6655 0.2636 255 40 40
33.8154 14.6642 0.2636 255 40 40
33.8125 14.6628 0.2636 255 40 40
33.8096 14.6615 0.2636 255 40 40
33.8067 14.6601 0.2636 255 40 40
33.8038 14.6588 0.2636 255 40 40
33.8009 14.6575 0.2636 255 40 40
33.7980 14.6561 0.2636 255 40 40
33.7951 14.6548 0.2636 255 40 40
33.7922 14.6535 0.2636 255 40 40
33.7893 14.6521 0.2636 255 40 40
33.7864 14.6508 0.2636 255 40 40
33.7835 14.6494 0.2636 255 40 40
33.7806 14.6481 0.2636 255 40 40
33.7778 14.6468 0.2636 255 40 40
33.7749 14.6454 0.2636 255 40 40
33.7720 14.6441 0.2636 255 40 40
33.7691 14.6427 0.2636 255 40 40
33.7662 14.6414 0.2636 255 40 40
33.7633 14.6401 0.2636 255 40 40
33.7604 14.6387 0.2636 255 40 40
33.7575 14.6374 0.2636 255 40 40
33.7546 14.6360 0.2636 255 40 40
33.7517 14.6347 0.2636 255 40 40
33.7488 14.6334 0.2636 255 40 40
33.7459 14.6320 0.2636 255 40 40
33.7430 14.6307 0.2636 255 40 40
33.7402 14.6294 0.2636 255 40 40
33.7373 14.6280 0.2636 255 40 40
33.7344 14.6267 0.2636 255 40 40
33.7315 14.6253 0.2636 255 40 40
33.7286 14.6240 0.2636 255 40 40
33.7257 14.6227 0.2636 255 40 40
33.7228 14.6213 0.2636 255 40 40
33.7199 14.6200 0.2636 255 40 40
33.7170 14.6186 0.2636 255 40 40
33.7141 14.6173 0.2636 255 40 40
33.7112 14.6160 0.2636 255 40 40
33.7083 14.6146 0.2636 255 40 40
33.7055 14.6133 0.2636 255 40 40
33.7026 14.6120 0.2636 255 40 40
33.6997 14.6106 0.2636 255 40 40
33.6968 14.6093 0.2636 255 40 40
33.6939 14.6079 0.2636 255 40 40
33.6910 14.6066 0.2636 255 40 40
33.6881 14.6053 0.2636 255 40 40
33.6852 14.6039 0.2636 255 40 40
33.6823 14.6026 0.2636 255 40 40
33.6794 14.6012 0.2636 255 40 40
33.6765 14.5999 0.2636 255 40 40
33.6736 14.5986 0.2636 255 40 40
33.6707 14.5972 0.2636 255 40 40
33.6679 14.5959 0.2636 255 40 40
33.6650 14.5946 0.2636 255 40 40
33.6621 14.5932 0.2636 255 40 40
33.6592 14.5919 0.2636 255 40 40
33.6563 14.5905 0.2636 255 40 40
33.6534 14.5892 0.2636 255 40 40
33.6505 14.5879 0.2636 255 40 40
33.6476 14.5865 0.2636 255 40 40
33.6447 14.5852 0.2636 255 40 40
33.6418 14.5838 0.2636 255 40 40
33.6389 14.5825 0.2636 255 40 40
33.6360 14.5812 0.2636 255 40 40
33.6331 14.5798 0.2636 255 40 40
33.6303 14.5785 0.2636 255 40 40
33.6274 14.5771 0.2636 255 40 40
33.6245 14.5758 0.2636 255 40 40
33.6216 14.5745 0.2636 255 40 40
33.6187 14.5731 0.2636 255 40 40
33.6158 14.5718 0.2636 255 40 40
33.6129 14.5705 0.2636 255 40 40
33.6100 14.5691 0.2636 255 40 40
33.6071 14.5678 0.2636 255 40 40
33.6042 14.5664 0.2636 255 40 40
33.6013 14.5651 0.2636 255 40 40
33.5984 14.5638 0.2636 255 40 40
33.5956 14.5624 0.2636 255 40 40
33.5927 14.5611 0.2636 255 40 40
33.5898 14.5597 0.2636 255 40 40
33.5869 14.5584 0.2636 255 40 40
33.5840 14.5571 0.2636 255 40 40
33.5811 14.5557 0.2636 255 40 40
33.5782 14.5544 0.2636 255 40 40
33.5753 14.5531 0.2636 255 40 40
33.5724 14.5517 0.2636 255 40 40
33.5695 14.5504 0.2636 255 40 40
33.5666 14.5490 0.2636 255 40 40
33.5637 14.5477 0.2636 255 40 40
33.5608 14.5464 0.2636 255 40 40
33.5579 14.5450 0.2636 255 40 40
33.5551 14.5437 0.2636 255 40 40
33.5522 14.5423 0.2636 255 40 40
33.5493 14.5410 0.2636 255 40 40
33.5464 14.5397 0.2636 255 40 40
33.5435 14.5383 0.2636 255 40 40
33.5406 14.5370 0.2636 255 40 40
33.5377 14.5356 0.2636 255 40 40
33.5348 14.5343 0.2636 255 40 40
33.5319 14.5330 0.2636 255 40 40
33.5290 14.5316 0.2636 255 40 40
33.5261 14.5303 0.2636 255 40 40
33.5232 14.5290 0.2636 255 40 40
33.5204 14.5276 0.2636 255 40 40
33.5175 14.5263 0.2636 255 40 40
33.5146 14.5249 0.2636 255 40 40
33.5117 14.5236 0.2636 255 40 40
33.5088 14.5223 0.2636 255 40 40
33.5059 14.5209 0.2636 255 40 40
33.5030 14.5196 0.2636 255 40 40
33.5001 14.5182 0.2636 255 40 40
33.4972 14.5169 0.2636 255 40 40
33.4943 14.5156 0.2636 255 40 40
33.4914 14.5142 0.2636 255 40 40
33.4885 14.5129 0.2636 255 40 40
33.4856 14.5115 0.2636 255 40 40
33.4828 14.5102 0.2636 255 40 40
33.4799 14.5089 0.2636 255 40 40
33.4770 14.5075 0.2636 255 40 40
33.4741 14.5062 0.2636 255 40 40
33.4712 14.5049 0.2636 255 40 40
33.4683 14.5035 0.2636 255 40 40
33.4654 14.5022 0.2636 255 40 40
33.4625 14.5008 0.2636 255 40 40
33.4596 14.4995 0.2636 255 40 40
33.4567 14.4982 0.2636 255 40 40
33.4538 14.4968 0.2636 255 40 40
33.4509 14.4955 0.2636 255 40 40
33.4480 14.4941 0.2636 255 40 40
33.4452 14.4928 0.2636 255 40 40
33.4452 14.4928 1.9726 255 40 40
33.4463 14.4904 1.9726 255 40 40
33.4474 14.4879 1.9726 255 40 40
33.4486 14.4854 1.9726 255 40 40
33.4497 14.4830 1.9726 255 40 40
33.4508 14.4805 1.9726 255 40 40
33.4520 14.4781 1.9726 255 40 40
33.4531 14.4756 1.9726 255 40 40
33.4542 14.4732 1.9726 255 40 40
33.4554 14.4707 1.9726 255 40 40
33.4565 14.4683 1.9726 255 40 40
33.4577 14.4658 1.9726 255 40 40
33.4588 14.4634 1.9726 255 40 40
33.4599 14.4609 1.9726 255 40 40
33.4611 14.4584 1.9726 255 40 40
33.4622 14.4560 1.9726 255 40 40
33.4633 14.4535 1.9726 255 40 40
33.4645 14.4511 1.9726 255 40 40
33.4656 14.4486 1.9726 255 40 40
33.4667 14.4462 1.9726 255 40 40
33.4679 14.4437 1.9726 255 40 40
33.4690 14.4413 1.9726 255 40 40
33.4701 14.4388 1.9726 255 40 40
33.4713 14.4364 1.9726 255 40 40
33.4724 14.4339 1.9726 255 40 40
33.4736 14.4315 1.9726 255 40 40
33.4747 14.4290 1.9726 255 40 40
33.4758 14.4265 1.9726 255 40 40
33.4770 14.4241 1.9726 255 40 40
33.4781 14.4216 1.9726 255 40 40
33.4792 14.4192 1.9726 255 40 40
33.4804 14.4167 1.9726 255 40 40
33.4815 14.4143 1.9726 255 40 40
33.4826 14.4118 1.9726 255 40 40
33.4838 14.4094 1.9726 255 40 40
33.4849 14.4069 1.9726 255 40 40
33.4861 14.4045 1.9726 255 40 40
33.4872 14.4020 1.9726 255 40 40
33.4883 14.3995 1.9726 255 40 40
33.4895 14.3971 1.9726 255 40 40
33.4906 14.3946 1.9726 255 40 40
33.4917 14.3922 1.9726 255 40 40
33.4929 14.3897 1.9726 255 40 40
33.4940 14.3873 1.9726 255 40 40
33.4951 14.3848 1.9726 255 40 40
33.4963 14.3824 1.9726 255 40 40
33.4974 14.3799 1.9726 255 40 40
33.4986 14.3775 1.9726 255 40 40
33.4997 14.3750 1.9726 255 40 40
33.5008 14.3726 1.9726 255 40 40
33.5020 14.3701 1.9726 255 40 40
33.5031 14.3676 1.9726 255 40 40
33.5042 14.3652 1.9726 255 40 40
33.5054 14.3627 1.9726 255 40 40
33.5065 14.3603 1.9726 255 40 40
33.5076 14.3578 1.9726 255 40 40
33.5088 14.3554 1.9726 255 40 40
33.5099 14.3529 1.9726 255 40 40
33.5110 14.3505 1.9726 255 40 40
33.5122 14.3480 1.9726 255 40 40
33.5133 14.3456 1.9726 255 40 40
33.5145 14.3431 1.9726 255 40 40
33.5156 14.3406 1.9726 255 40 40
33.5167 14.3382 1.9726 255 40 40
33.5179 14.3357 1.9726 255 40 40
33.5190 14.3333 1.9726 255 40 40
33.5201 14.3308 1.9726 255 40 40
33.5213 14.3284 1.9726 255 40 40
33.5224 14.3259 1.9726 255 40 40
33.5235 14.3235 1.9726 255 40 40
33.5247 14.3210 1.9726 255 40 40
33.5258 14.3186 1.9726 255 40 40
33.5270 14.3161 1.9726 255 40 40
33.5281 14.3136 1.9726 255 40 40
33.5292 14.3112 1.9726 255 40 40
33.5304 14.3087 1.9726 255 40 40
33.5315 14.3063 1.9726 255 40 40
33.5326 14.3038 1.9726 255 40 40
33.5338 14.3014 1.9726 255 40 40
33.5349 14.2989 1.9726 255 40 40
33.5360 14.2965 1.9726 255 40 40
33.5372 14.2940 1.9726 255 40 40
33.5383 14.2916 1.9726 255 40 40
33.5394 14.2891 1.9726 255 40 40
33.5406 14.2867 1.9726 255 40 40
33.5417 14.2842 1.9726 255 40 40
33.5429 14.2817 1.9726 255 40 40
33.5440 14.2793 1.9726 255 40 40
33.5451 14.2768 1.9726 255 40 40
33.5463 14.2744 1.9726 255 40 40
33.5474 14.2719 1.9726 255 40 40
33.5485 14.2695 1.9726 255 40 40
33.5497 14.2670 1.9726 255 40 40
33.5508 14.2646 1.9726 255 40 40
33.5519 14.2621 1.9726 255 40 40
33.5531 14.2597 1.9726 255 40 40
33.5542 14.2572 1.9726 255 40 40
33.5554 14.2547 1.9726 255 40 40
33.5565 14.2523 1.9726 255 40 40
33.5576 14.2498 1.9726 255 40 40
33.5588 14.2474 1.9726 255 40 40
33.5599 14.2449 1.9726 255 40 40
33.5610 14.2425 1.9726 255 40 40
33.5622 14.2400 1.9726 255 40 40
33.5633 14.2376 1.9726 255 40 40
33.5644 14.2351 1.9726 255 40 40
33.5656 14.2327 1.9726 255 40 40
33.5667 14.2302 1.9726 255 40 40
33.5678 14.2277 1.9726 255 40 40
33.5690 14.2253 1.9726 255 40 40
33.5701 14.2228 1.9726 255 40 40
33.5713 14.2204 1.9726 255 40 40
33.5724 14.2179 1.9726 255 40 40
33.5735 14.2155 1.9726 255 40 40
33.5747 14.2130 1.9726 255 40 40
33.5758 14.2106 1.9726 255 40 40
33.5769 14.2081 1.9726 255 40 40
33.5781 14.2057 1.9726 255 40 40
33.5792 14.2032 1.9726 255 40 40
33.5803 14.2008 1.9726 255 40 40
33.5815 14.1983 1.9726 255 40 40
33.5826 14.1958 1.9726 255 40 40
33.5838 14.1934 1.9726 255 40 40
33.5849 14.1909 1.9726 255 40 40
33.5860 14.1885 1.9726 255 40 40
33.5872 14.1860 1.9726 255 40 40
33.5883 14.1836 1.9726 255 40 40
33.5894 14.1811 1.9726 255 40 40
33.5906 14.1787 1.9726 255 40 40
33.5917 14.1762 1.9726 255 40 40
33.5928 14.1738 1.9726 255 40 40
33.5940 14.1713 1.9726 255 40 40
33.5951 14.1688 1.9726 255 40 40
33.5962 14.1664 1.9726 255 40 40
33.5974 14.1639 1.9726 255 40 40
33.5985 14.1615 1.9726 255 40 40
33.5997 14.1590 1.9726 255 40 40
33.6008 14.1566 1.9726 255 40 40
33.6019 14.1541 1.9726 255 40 40
33.6031 14.1517 1.9726 255 40 40
33.6042 14.1492 1.9726 255 40 40
33.6053 14.1468 1.9726 255 40 40
33.6065 14.1443 1.9726 255 40 40
33.6076 14.1418 1.9726 255 40 40
33.6087 14.1394 1.9726 255 40 40
33.6099 14.1369 1.9726 255 40 40
33.6110 14.1345 1.9726 255 40 40
33.6122 14.1320 1.9726 255 40 40
33.6133 14.1296 1.9726 255 40 40
33.6144 14.1271 1.9726 255 40 40
33.6156 14.1247 1.9726 255 40 40
33.6167 14.1222 1.9726 255 40 40
33.6178 14.1198 1.9726 255 40 40
33.6190 14.1173 1.9726 255 40 40
33.6201 14.1149 1.9726 255 40 40
33.6212 14.1124 1.9726 255 40 40
33.6224 14.1099 1.9726 255 40 40
33.6235 14.1075 1.9726 255 40 40
33.6246 14.1050 1.9726 255 40 40
33.6258 14.1026 1.9726 255 40 40
33.6269 14.1001 1.9726 255 40 40
33.6281 14.0977 1.9726 255 40 40
33.6292 14.0952 1.9726 255 40 40
33.6303 14.0928 1.9726 255 40 40
33.6315 14.0903 1.9726 255 40 40
33.6326 14.0879 1.9726 255 40 40
33.6326 14.0879 1.9726 255 40 40
33.6355 14.0892 1.9726 255 40 40
33.6384 14.0905 1.9726 255 40 40
33.6413 14.0919 1.9726 255 40 40
33.6442 14.0932 1.9726 255 40 40
33.6471 14.0945 1.9726 255 40 40
33.6500 14.0959 1.9726 255 40 40
33.6528 14.0972 1.9726 255 40 40
33.6557 14.0986 1.9726 255 40 40
33.6586 14.0999 1.9726 255 40 40
33.6615 14.1012 1.9726 255 40 40
33.6644 14.1026 1.9726 255 40 40
33.6673 14.1039 1.9726 255 40 40
33.6702 14.1053 1.9726 255 40 40
33.6731 14.1066 1.9726 255 40 40
33.6760 14.1079 1.9726 255 40 40
33.6789 14.1093 1.9726 255 40 40
33.6818 14.1106 1.9726 255 40 40
33.6847 14.1120 1.9726 255 40 40
33.6875 14.1133 1.9726 255 40 40
33.6904 14.1146 1.9726 255 40 40
33.6933 14.1160 1.9726 255 40 40
33.6962 14.1173 1.9726 255 40 40
33.6991 14.1186 1.9726 255 40 40
33.7020 14.1200 1.9726 255 40 40
33.7049 14.1213 1.9726 255 40 40
33.7078 14.1227 1.9726 255 40 40
33.7107 14.1240 1.9726 255 40 40
33.7136 14.1253 1.9726 255 40 40
33.7165 14.1267 1.9726 255 40 40
33.7194 14.1280 1.9726 255 40 40
33.7223 14.1294 1.9726 255 40 40
33.7251 14.1307 1.9726 255 40 40
33.7280 14.1320 1.9726 255 40 40
33.7309 14.1334 1.9726 255 40 40
33.7338 14.1347 1.9726 255 40 40
33.7367 14.1360 1.9726 255 40 40
33.7396 14.1374 1.9726 255 40 40
33.7425 14.1387 1.9726 255 40 40
33.7454 14.1401 1.9726 255 40 40
33.7483 14.1414 1.9726 255 40 40
33.7512 14.1427 1.9726 255 40 40
33.7541 14.1441 1.9726 255 40 40
33.7570 14.1454 1.9726 255 40 40
33.7599 14.1468 1.9726 255 40 40
33.7627 14.1481 1.9726 255 40 40
33.7656 14.1494 1.9726 255 40 40
33.7685 14.1508 1.9726 255 40 40
33.7714 14.1521 1.9726 255 40 40
33.7743 14.1535 1.9726 255 40 40
33.7772 14.1548 1.9726 255 40 40
33.7801 14.1561 1.9726 255 40 40
33.7830 14.1575 1.9726 255 40 40
33.7859 14.1588 1.9726 255 40 40
33.7888 14.1601 1.9726 255 40 40
33.7917 14.1615 1.9726 255 40 40
33.7946 14.1628 1.9726 255 40 40
33.7975 14.1642 1.9726 255 40 40
33.8003 14.1655 1.9726 255 40 40
33.8032 14.1668 1.9726 255 40 40
33.8061 14.1682 1.9726 255 40 40
33.8090 14.1695 1.9726 255 40 40
33.8119 14.1709 1.9726 255 40 40
33.8148 14.1722 1.9726 255 40 40
33.8177 14.1735 1.9726 255 40 40
33.8206 14.1749 1.9726 255 40 40
33.8235 14.1762 1.9726 255 40 40
33.8264 14.1775 1.9726 255 40 40
33.8293 14.1789 1.9726 255 40 40
33.8322 14.1802 1.9726 255 40 40
33.8350 14.1816 1.9726 255 40 40
33.8379 14.1829 1.9726 255 40 40
33.8408 14.1842 1.9726 255 40 40
33.8437 14.1856 1.9726 255 40 40
33.8466 14.1869 1.9726 255 40 40
33.8495 14.1883 1.9726 255 40 40
33.8524 14.1896 1.9726 255 40 40
33.8553 14.1909 1.9726 255 40 40
33.8582 14.1923 1.9726 255 40 40
33.8611 14.1936 1.9726 255 40 40
33.8640 14.1950 1.9726 255 40 40
33.8669 14.1963 1.9726 255 40 40
33.8698 14.1976 1.9726 255 40 40
33.8727 14.1990 1.9726 255 40 40
33.8755 14.2003 1.9726 255 40 40
33.8784 14.2016 1.9726 255 40 40
33.8813 14.2030 1.9726 255 40 40
33.8842 14.2043 1.9726 255 40 40
33.8871 14.2057 1.9726 255 40 40
33.8900 14.2070 1.9726 255 40 40
33.8929 14.2083 1.9726 255 40 40
33.8958 14.2097 1.9726 255 40 40
33.8987 14.2110 1.9726 255 40 40
33.9016 14.2124 1.9726 255 40 40
33.9045 14.2137 1.9726 255 40 40
33.9074 14.2150 1.9726 255 40 40
33.9102 14.2164 1.9726 255 40 40
33.9131 14.2177 1.9726 255 40 40
33.9160 14.2190 1.9726 255 40 40
33.9189 14.2204 1.9726 255 40 40
33.9218 14.2217 1.9726 255 40 40
33.9247 14.2231 1.9726 255 40 40
33.9276 14.2244 1.9726 255 40 40
33.9305 14.2257 1.9726 255 40 40
33.9334 14.2271 1.9726 255 40 40
33.9363 14.2284 1.9726 255 40 40
33.9392 14.2298 1.9726 255 40 40
33.9421 14.2311 1.9726 255 40 40
33.9450 14.2324 1.9726 255 40 40
33.9478 14.2338 1.9726 255 40 40
33.9507 14.2351 1.9726 255 40 40
33.9536 14.2365 1.9726 255 40 40
33.9565 14.2378 1.9726 255 40 40
33.9594 14.2391 1.9726 255 40 40
33.9623 14.2405 1.9726 255 40 40
33.9652 14.2418 1.9726 255 40 40
33.9681 14.2431 1.9726 255 40 40
33.9710 14.2445 1.9726 255 40 40
33.9739 14.2458 1.9726 255 40 40
33.9768 14.2472 1.9726 255 40 40
33.9797 14.2485 1.9726 255 40 40
33.9826 14.2498 1.9726 255 40 40
33.9854 14.2512 1.9726 255 40 40
33.9883 14.2525 1.9726 255 40 40
33.9912 14.2539 1.9726 255 40 40
33.9941 14.2552 1.9726 255 40 40
33.9970 14.2565 1.9726 255 40 40
33.9999 14.2579 1.9726 255 40 40
34.0028 14.2592 1.9726 255 40 40
34.0057 14.2605 1.9726 255 40 40
34.0086 14.2619 1.9726 255 40 40
34.0115 14.2632 1.9726 255 40 40
34.0144 14.2646 1.9726 255 40 40
34.0173 14.2659 1.9726 255 40 40
34.0201 14.2672 1.9726 255 40 40
34.0230 14.2686 1.9726 255 40 40
34.0259 14.2699 1.9726 255 40 40
34.0288 14.2713 1.9726 255 40 40
34.0317 14.2726 1.9726 255 40 40
34.0346 14.2739 1.9726 255 40 40
34.0375 14.2753 1.9726 255 40 40
34.0404 14.2766 1.9726 255 40 40
34.0433 14.2780 1.9726 255 40 40
34.0462 14.2793 1.9726 255 40 40
34.0491 14.2806 1.9726 255 40 40
34.0520 14.2820 1.9726 255 40 40
34.0549 14.2833 1.9726 255 40 40
34.0577 14.2846 1.9726 255 40 40
34.0606 14.2860 1.9726 255 40 40
34.0635 14.2873 1.9726 255 40 40
34.0664 14.2887 1.9726 255 40 40
34.0693 14.2900 1.9726 255 40 40
34.0722 14.2913 1.9726 255 40 40
34.0751 14.2927 1.9726 255 40 40
34.0780 14.2940 1.9726 255 40 40
34.0809 14.2954 1.9726 255 40 40
34.0838 14.2967 1.9726 255 40 40
34.0867 14.2980 1.9726 255 40 40
34.0896 14.2994 1.9726 255 40 40
34.0925 14.3007 1.9726 255 40 40
34.0953 14.3020 1.9726 255 40 40
34.0982 14.3034 1.9726 255 40 40
34.1011 14.3047 1.9726 255 40 40
34.1040 14.3061 1.9726 255 40 40
34.1069 14.3074 1.9726 255 40 40
34.1098 14.3087 1.9726 255 40 40
34.1098 14.3087 1.9726 255 40 40
34.1087 14.3112 1.9726 255 40 40
34.1075 14.3137 1.9726 255 40 40
34.1064 14.3161 1.9726 255 40 40
34.1053 14.3186 1.9726 255 40 40
34.1041 14.3210 1.9726 255 40 40
34.1030 14.3235 1.9726 255 40 40
34.1019 14.3259 1.9726 255 40 40
34.1007 14.3284 1.9726 255 40 40
34.0996 14.3308 1.9726 255 40 40
34.0984 14.3333 1.9726 255 40 40
34.0973 14.3357 1.9726 255 40 40
34.0962 14.3382 1.9726 255 40 40
34.0950 14.3406 1.9726 255 40 40
34.0939 14.3431 1.9726 255 40 40
34.0928 14.3456 1.9726 255 40 40
34.0916 14.3480 1.9726 255 40 40
34.0905 14.3505 1.9726 255 40 40
34.0894 14.3529 1.9726 255 40 40
34.0882 14.3554 1.9726 255 40 40
34.0871 14.3578 1.9726 255 40 40
34.0859 14.3603 1.9726 255 40 40
34.0848 14.3627 1.9726 255 40 40
34.0837 14.3652 1.9726 255 40 40
34.0825 14.3676 1.9726 255 40 40
34.0814 14.3701 1.9726 255 40 40
34.0803 14.3726 1.9726 255 40 40
34.0791 14.3750 1.9726 255 40 40
34.0780 14.3775 1.9726 255 40 40
34.0769 14.3799 1.9726 255 40 40
34.0757 14.3824 1.9726 255 40 40
34.0746 14.3848 1.9726 255 40 40
34.0735 14.3873 1.9726 255 40 40
34.0723 14.3897 1.9726 255 40 40
34.0712 14.3922 1.9726 255 40 40
34.0700 14.3946 1.9726 255 40 40
34.0689 14.3971 1.9726 255 40 40
34.0678 14.3995 1.9726 255 40 40
34.0666 14.4020 1.9726 255 40 40
34.0655 14.4045 1.9726 255 40 40
34.0644 14.4069 1.9726 255 40 40
34.0632 14.4094 1.9726 255 40 40
34.0621 14.4118 1.9726 255 40 40
34.0610 14.4143 1.9726 255 40 40
34.0598 14.4167 1.9726 255 40 40
34.0587 14.4192 1.9726 255 40 40
34.0575 14.4216 1.9726 255 40 40
34.0564 14.4241 1.9726 255 40 40
34.0553 14.4265 1.9726 255 40 40
34.0541 14.4290 1.9726 255 40 40
34.0530 14.4315 1.9726 255 40 40
34.0519 14.4339 1.9726 255 40 40
34.0507 14.4364 1.9726 255 40 40
34.0496 14.4388 1.9726 255 40 40
34.0485 14.4413 1.9726 255 40 40
34.0473 14.4437 1.9726 255 40 40
34.0462 14.4462 1.9726 255 40 40
34.0451 14.4486 1.9726 255 40 40
34.0439 14.4511 1.9726 255 40 40
34.0428 14.4535 1.9726 255 40 40
34.0416 14.4560 1.9726 255 40 40
34.0405 14.4585 1.9726 255 40 40
34.0394 14.4609 1.9726 255 40 40
34.0382 14.4634 1.9726 255 40 40
34.0371 14.4658 1.9726 255 40 40
34.0360 14.4683 1.9726 255 40 40
34.0348 14.4707 1.9726 255 40 40
34.0337 14.4732 1.9726 255 40 40
34.0326 14.4756 1.9726 255 40 40
34.0314 14.4781 1.9726 255 40 40
34.0303 14.4805 1.9726 255 40 40
34.0291 14.4830 1.9726 255 40 40
34.0280 14.4854 1.9726 255 40 40
34.0269 14.4879 1.9726 255 40 40
34.0257 14.4904 1.9726 255 40 40
34.0246 14.4928 1.9726 255 40 40
34.0235 14.4953 1.9726 255 40 40
34.0223 14.4977 1.9726 255 40 40
34.0212 14.5002 1.9726 255 40 40
34.0201 14.5026 1.9726 255 40 40
34.0189 14.5051 1.9726 255 40 40
34.0178 14.5075 1.9726 255 40 40
34.0167 14.5100 1.9726 255 40 40
34.0155 14.5124 1.9726 255 40 40
34.0144 14.5149 1.9726 255 40 40
34.0132 14.5174 1.9726 255 40 40
34.0121 14.5198 1.9726 255 40 40
34.0110 14.5223 1.9726 255 40 40
34.0098 14.5247 1.9726 255 40 40
34.0087 14.5272 1.9726 255 40 40
34.0076 14.5296 1.9726 255 40 40
34.0064 14.5321 1.9726 255 40 40
34.0053 14.5345 1.9726 255 40 40
34.0042 14.5370 1.9726 255 40 40
34.0030 14.5394 1.9726 255 40 40
34.0019 14.5419 1.9726 255 40 40
34.0007 14.5444 1.9726 255 40 40
33.9996 14.5468 1.9726 255 40 40
33.9985 14.5493 1.9726 255 40 40
33.9973 14.5517 1.9726 255 40 40
33.9962 14.5542 1.9726 255 40 40
33.9951 14.5566 1.9726 255 40 40
33.9939 14.5591 1.9726 255 40 40
33.9928 14.5615 1.9726 255 40 40
33.9917 14.5640 1.9726 255 40 40
33.9905 14.5664 1.9726 255 40 40
33.9894 14.5689 1.9726 255 40 40
33.9883 14.5713 1.9726 255 40 40
33.9871 14.5738 1.9726 255 40 40
33.9860 14.5763 1.9726 255 40 40
33.9848 14.5787 1.9726 255 40 40
33.9837 14.5812 1.9726 255 40 40
33.9826 14.5836 1.9726 255 40 40
33.9814 14.5861 1.9726 255 40 40
33.9803 14.5885 1.9726 255 40 40
33.9792 14.5910 1.9726 255 40 40
33.9780 14.5934 1.9726 255 40 40
33.9769 14.5959 1.9726 255 40 40
33.9758 14.5983 1.9726 255 40 40
33.9746 14.6008 1.9726 255 40 40
33.9735 14.6033 1.9726 255 40 40
33.9723 14.6057 1.9726 255 40 40
33.9712 14.6082 1.9726 255 40 40
33.9701 14.6106 1.9726 255 40 40
33.9689 14.6131 1.9726 255 40 40
33.9678 14.6155 1.9726 255 40 40
33.9667 14.6180 1.9726 255 40 40
33.9655 14.6204 1.9726 255 40 40
33.9644 14.6229 1.9726 255 40 40
33.9633 14.6253 1.9726 255 40 40
33.9621 14.6278 1.9726 255 40 40
33.9610 14.6302 1.9726 255 40 40
33.9599 14.6327 1.9726 255 40 40
33.9587 14.6352 1.9726 255 40 40
33.9576 14.6376 1.9726 255 40 40
33.9564 14.6401 1.9726 255 40 40
33.9553 14.6425 1.9726 255 40 40
33.9542 14.6450 1.9726 255 40 40
33.9530 14.6474 1.9726 255 40 40
33.9519 14.6499 1.9726 255 40 40
33.9508 14.6523 1.9726 255 40 40
33.9496 14.6548 1.9726 255 40 40
33.9485 14.6572 1.9726 255 40 40
33.9474 14.6597 1.9726 255 40 40
33.9462 14.6622 1.9726 255 40 40
33.9451 14.6646 1.9726 255 40 40
33.9439 14.6671 1.9726 255 40 40
33.9428 14.6695 1.9726 255 40 40
33.9417 14.6720 1.9726 255 40 40
33.9405 14.6744 1.9726 255 40 40
33.9394 14.6769 1.9726 255 40 40
33.9383 14.6793 1.9726 255 40 40
33.9371 14.6818 1.9726 255 40 40
33.9360 14.6842 1.9726 255 40 40
33.9349 14.6867 1.9726 255 40 40
33.9337 14.6892 1.9726 255 40 40
33.9326 14.6916 1.9726 255 40 40
33.9314 14.6941 1.9726 255 40 40
33.9303 14.6965 1.9726 255 40 40
33.9292 14.6990 1.9726 255 40 40
33.9280 14.7014 1.9726 255 40 40
33.9269 14.7039 1.9726 255 40 40
33.9258 14.7063 1.9726 255 40 40
33.9246 14.7088 1.9726 255 40 40
33.9235 14.7112 1.9726 255 40 40
33.9224 14.7137 1.9726 255 40 40
33.9224 14.7137 1.9726 255 40 40
33.9195 14.7124 1.9726 255 40 40
33.9166 14.7110 1.9726 255 40 40
33.9137 14.7097 1.9726 255 40 40
33.9108 14.7083 1.9726 255 40 40
33.9079 14.7070 1.9726 255 40 40
33.9050 14.7057 1.9726 255 40 40
33.9021 14.7043 1.9726 255 40 40
33.8992 14.7030 1.9726 255 40 40
33.8963 14.7016 1.9726 255 40 40
33.8934 14.7003 1.9726 255 40 40
33.8905 14.6990 1.9726 255 40 40
33.8877 14.6976 1.9726 255 40 40
33.8848 14.6963 1.9726 255 40 40
33.8819 14.6950 1.9726 255 40 40
33.8790 14.6936 1.9726 255 40 40
33.8761 14.6923 1.9726 255 40 40
33.8732 14.6909 1.9726 255 40 40
33.8703 14.6896 1.9726 255 40 40
33.8674 14.6883 1.9726 255 40 40
33.8645 14.6869 1.9726 255 40 40
33.8616 14.6856 1.9726 255 40 40
33.8587 14.6842 1.9726 255 40 40
33.8558 14.6829 1.9726 255 40 40
33.8530 14.6816 1.9726 255 40 40
33.8501 14.6802 1.9726 255 40 40
33.8472 14.6789 1.9726 255 40 40
33.8443 14.6775 1.9726 255 40 40
33.8414 14.6762 1.9726 255 40 40
33.8385 14.6749 1.9726 255 40 40
33.8356 14.6735 1.9726 255 40 40
33.8327 14.6722 1.9726 255 40 40
33.8298 14.6709 1.9726 255 40 40
33.8269 14.6695 1.9726 255 40 40
33.8240 14.6682 1.9726 255 40 40
33.8211 14.6668 1.9726 255 40 40
33.8182 14.6655 1.9726 255 40 40
33.8154 14.6642 1.9726 255 40 40
33.8125 14.6628 1.9726 255 40 40
33.8096 14.6615 1.9726 255 40 40
33.8067 14.6601 1.9726 255 40 40
33.8038 14.6588 1.9726 255 40 40
33.8009 14.6575 1.9726 255 40 40
33.7980 14.6561 1.9726 255 40 40
33.7951 14.6548 1.9726 255 40 40
33.7922 14.6535 1.9726 255 40 40
33.7893 14.6521 1.9726 255 40 40
33.7864 14.6508 1.9726 255 40 40
33.7835 14.6494 1.9726 255 40 40
33.7806 14.6481 1.9726 255 40 40
33.7778 14.6468 1.9726 255 40 40
33.7749 14.6454 1.9726 255 40 40
33.7720 14.6441 1.9726 255 40 40
33.7691 14.6427 1.9726 255 40 40
33.7662 14.6414 1.9726 255 40 40
33.7633 14.6401 1.9726 255 40 40
33.7604 14.6387 1.9726 255 40 40
33.7575 14.6374 1.9726 255 40 40
33.7546 14.6360 1.9726 255 40 40
33.7517 14.6347 1.9726 255 40 40
33.7488 14.6334 1.9726 255 40 40
33.7459 14.6320 1.9726 255 40 40
33.7430 14.6307 1.9726 255 40 40
33.7402 14.6294 1.9726 255 40 40
33.7373 14.6280 1.9726 255 40 40
33.7344 14.6267 1.9726 255 40 40
33.7315 14.6253 1.9726 255 40 40
33.7286 14.6240 1.9726 255 40 40
33.7257 14.6227 1.9726 255 40 40
33.7228 14.6213 1.9726 255 40 40
33.7199 14.6200 1.9726 255 40 40
33.7170 14.6186 1.9726 255 40 40
33.7141 14.6173 1.9726 255 40 40
33.7112 14.6160 1.9726 255 40 40
33.7083 14.6146 1.9726 255 40 40
33.7055 14.6133 1.9726 255 40 40
33.7026 14.6120 1.9726 255 40 40
33.6997 14.6106 1.9726 255 40 40
33.6968 14.6093 1.9726 255 40 40
33.6939 14.6079 1.9726 255 40 40
33.6910 14.6066 1.9726 255 40 40
33.6881 14.6053 1.9726 255 40 40
33.6852 14.6039 1.9726 255 40 40
33.6823 14.6026 1.9726 255 40 40
33.6794 14.6012 1.9726 255 40 40
33.6765 14.5999 1.9726 255 40 40
33.6736 14.5986 1.9726 255 40 40
33.6707 14.5972 1.9726 255 40 40
33.6679 14.5959 1.9726 255 40 40
33.6650 14.5946 1.9726 255 40 40
33.6621 14.5932 1.9726 255 40 40
33.6592 14.5919 1.9726 255 40 40
33.6563 14.5905 1.9726 255 40 40
33.6534 14.5892 1.9726 255 40 40
33.6505 14.5879 1.9726 255 40 40
33.6476 14.5865 1.9726 255 40 40
33.6447 14.5852 1.9726 255 40 40
33.6418 14.5838 1.9726 255 40 40
33.6389 14.5825 1.9726 255 40 40
33.6360 14.5812 1.9726 255 40 40
33.6331 14.5798 1.9726 255 40 40
33.6303 14.5785 1.9726 255 40 40
33.6274 14.5771 1.9726 255 40 40
33.6245 14.5758 1.9726 255 40 40
33.6216 14.5745 1.9726 255 40 40
33.6187 14.5731 1.9726 255 40 40
33.6158 14.5718 1.9726 255 40 40
33.6129 14.5705 1.9726 255 40 40
33.6100 14.5691 1.9726 255 40 40
33.6071 14.5678 1.9726 255 40 40
33.6042 14.5664 1.9726 255 40 40
33.6013 14.5651 1.9726 255 40 40
33.5984 14.5638 1.9726 255 40 40
33.5956 14.5624 1.9726 255 40 40
33.5927 14.5611 1.9726 255 40 40
33.5898 14.5597 1.9726 255 40 40
33.5869 14.5584 1.9726 255 40 40
33.5840 14.5571 1.9726 255 40 40
33.5811 14.5557 1.9726 255 40 40
33.5782 14.5544 1.9726 255 40 40
33.5753 14.5531 1.9726 255 40 40
33.5724 14.5517 1.9726 255 40 40
33.5695 14.5504 1.9726 255 40 40
33.5666 14.5490 1.9726 255 40 40
33.5637 14.5477 1.9726 255 40 40
33.5608 14.5464 1.9726 255 40 40
33.5579 14.5450 1.9726 255 40 40
33.5551 14.5437 1.9726 255 40 40
33.5522 14.5423 1.9726 255 40 40
33.5493 14.5410 1.9726 255 40 40
33.5464 14.5397 1.9726 255 40 40
33.5435 14.5383 1.9726 255 40 40
33.5406 14.5370 1.9726 255 40 40
33.5377 14.5356 1.9726 255 40 40
33.5348 14.5343 1.9726 255 40 40
33.5319 14.5330 1.9726 255 40 40
33.5290 14.5316 1.9726 255 40 40
33.5261 14.5303 1.9726 255 40 40
33.5232 14.5290 1.9726 255 40 40
33.5204 14.5276 1.9726 255 40 40
33.5175 14.5263 1.9726 255 40 40
33.5146 14.5249 1.9726 255 40 40
33.5117 14.5236 1.9726 255 40 40
33.5088 14.5223 1.9726 255 40 40
33.5059 14.5209 1.9726 255 40 40
33.5030 14.5196 1.9726 255 40 40
33.5001 14.5182 1.9726 255 40 40
33.4972 14.5169 1.9726 255 40 40
33.4943 14.5156 1.9726 255 40 40
33.4914 14.5142 1.9726 255 40 40
33.4885 14.5129 1.9726 255 40 40
33.4856 14.5115 1.9726 255 40 40
33.4828 14.5102 1.9726 255 40 40
33.4799 14.5089 1.9726 255 40 40
33.4770 14.5075 1.9726 255 40 40
33.4741 14.5062 1.9726 255 40 40
33.4712 14.5049 1.9726 255 40 40
33.4683 14.5035 1.9726 255 40 40
33.4654 14.5022 1.9726 255 40 40
33.4625 14.5008 1.9726 255 40 40
33.4596 14.4995 1.9726 255 40 40
33.4567 14.4982 1.9726 255 40 40
33.4538 14.4968 1.9726 255 40 40
33.4509 14.4955 1.9726 255 40 40
33.4480 14.4941 1.9726 255 40 40
33.4452 14.4928 1.9726 255 40 40
33.4452 14.4928 0.2636 255 40 40
33.4452 14.4928 0.2740 255 40 40
33.4452 14.4928 0.2844 255 40 40
33.4452 14.4928 0.2947 255 40 40
33.4452 14.4928 0.3051 255 40 40
33.4452 14.4928 0.3154 255 40 40
33.4452 14.4928 0.3258 255 40 40
33.4452 14.4928 0.3361 255 40 40
33.4452 14.4928 0.3465 255 40 40
33.4452 14.4928 0.3569 255 40 40
33.4452 14.4928 0.3672 255 40 40
33.4452 14.4928 0.3776 255 40 40
33.4452 14.4928 0.3879 255 40 40
33.4452 14.4928 0.3983 255 40 40
33.4452 14.4928 0.4086 255 40 40
33.4452 14.4928 0.4190 255 40 40
33.4452 14.4928 0.4294 255 40 40
33.4452 14.4928 0.4397 255 40 40
33.4452 14.4928 0.4501 255 40 40
33.4452 14.4928 0.4604 255 40 40
33.4452 14.4928 0.4708 255 40 40
33.4452 14.4928 0.4811 255 40 40
33.4452 14.4928 0.4915 255 40 40
33.4452 14.4928 0.5019 255 40 40
33.4452 14.4928 0.5122 255 40 40
33.4452 14.4928 0.5226 255 40 40
33.4452 14.4928 0.5329 255 40 40
33.4452 14.4928 0.5433 255 40 40
33.4452 14.4928 0.5537 255 40 40
33.4452 14.4928 0.5640 255 40 40
33.4452 14.4928 0.5744 255 40 40
33.4452 14.4928 0.5847 255 40 40
33.4452 14.4928 0.5951 255 40 40
33.4452 14.4928 0.6054 255 40 40
33.4452 14.4928 0.6158 255 40 40
33.4452 14.4928 0.6262 255 40 40
33.4452 14.4928 0.6365 255 40 40
33.4452 14.4928 0.6469 255 40 40
33.4452 14.4928 0.6572 255 40 40
33.4452 14.4928 0.6676 255 40 40
33.4452 14.4928 0.6779 255 40 40
33.4452 14.4928 0.6883 255 40 40
33.4452 14.4928 0.6987 255 40 40
33.4452 14.4928 0.7090 255 40 40
33.4452 14.4928 0.7194 255 40 40
33.4452 14.4928 0.7297 255 40 40
33.4452 14.4928 0.7401 255 40 40
33.4452 14.4928 0.7504 255 40 40
33.4452 14.4928 0.7608 255 40 40
33.4452 14.4928 0.7712 255 40 40
33.4452 14.4928 0.7815 255 40 40
33.4452 14.4928 0.7919 255 40 40
33.4452 14.4928 0.8022 255 40 40
33.4452 14.4928 0.8126 255 40 40
33.4452 14.4928 0.8229 255 40 40
33.4452 14.4928 0.8333 255 40 40
33.4452 14.4928 0.8437 255 40 40
33.4452 14.4928 0.8540 255 40 40
33.4452 14.4928 0.8644 255 40 40
33.4452 14.4928 0.8747 255 40 40
33.4452 14.4928 0.8851 255 40 40
33.4452 14.4928 0.8954 255 40 40
33.4452 14.4928 0.9058 255 40 40
33.4452 14.4928 0.9162 255 40 40
33.4452 14.4928 0.9265 255 40 40
33.4452 14.4928 0.9369 255 40 40
33.4452 14.4928 0.9472 255 40 40
33.4452 14.4928 0.9576 255 40 40
33.4452 14.4928 0.9679 255 40 40
33.4452 14.4928 0.9783 255 40 40
33.4452 14.4928 0.9887 255 40 40
33.4452 14.4928 0.9990 255 40 40
33.4452 14.4928 1.0094 255 40 40
33.4452 14.4928 1.0197 255 40 40
33.4452 14.4928 1.0301 255 40 40
33.4452 14.4928 1.0404 255 40 40
33.4452 14.4928 1.0508 255 40 40
33.4452 14.4928 1.0612 255 40 40
33.4452 14.4928 1.0715 255 40 40
33.4452 14.4928 1.0819 255 40 40
33.4452 14.4928 1.0922 255 40 40
33.4452 14.4928 1.1026 255 40 40
33.4452 14.4928 1.1129 255 40 40
33.4452 14.4928 1.1233 255 40 40
33.4452 14.4928 1.1337 255 40 40
33.4452 14.4928 1.1440 255 40 40
33.4452 14.4928 1.1544 255 40 40
33.4452 14.4928 1.1647 255 40 40
33.4452 14.4928 1.1751 255 40 40
33.4452 14.4928 1.1854 255 40 40
33.4452 14.4928 1.1958 255 40 40
33.4452 14.4928 1.2062 255 40 40
33.4452 14.4928 1.2165 255 40 40
33.4452 14.4928 1.2269 255 40 40
33.4452 14.4928 1.2372 255 40 40
33.4452 14.4928 1.2476 255 40 40
33.4452 14.4928 1.2579 255 40 40
33.4452 14.4928 1.2683 255 40 40
33.4452 14.4928 1.2787 255 40 40
33.4452 14.4928 1.2890 255 40 40
33.4452 14.4928 1.2994 255 40 40
33.4452 14.4928 1.3097 255 40 40
33.4452 14.4928 1.3201 255 40 40
33.4452 14.4928 1.3304 255 40 40
33.4452 14.4928 1.3408 255 40 40
33.4452 14.4928 1.3512 255 40 40
33.4452 14.4928 1.3615 255 40 40
33.4452 14.4928 1.3719 255 40 40
33.4452 14.4928 1.3822 255 40 40
33.4452 14.4928 1.3926 255 40 40
33.4452 14.4928 1.4030 255 40 40
33.4452 14.4928 1.4133 255 40 40
33.4452 14.4928 1.4237 255 40 40
33.4452 14.4928 1.4340 255 40 40
33.4452 14.4928 1.4444 255 40 40
33.4452 14.4928 1.4547 255 40 40
33.4452 14.4928 1.4651 255 40 40
33.4452 14.4928 1.4755 255 40 40
33.4452 14.4928 1.4858 255 40 40
33.4452 14.4928 1.4962 255 40 40
33.4452 14.4928 1.5065 255 40 40
33.4452 14.4928 1.5169 255 40 40
33.4452 14.4928 1.5272 255 40 40
33.4452 14.4928 1.5376 255 40 40
33.4452 14.4928 1.5480 255 40 40
33.4452 14.4928 1.5583 255 40 40
33.4452 14.4928 1.5687 255 40 40
33.4452 14.4928 1.5790 255 40 40
33.4452 14.4928 1.5894 255 40 40
33.4452 14.4928 1.5997 255 40 40
33.4452 14.4928 1.6101 255 40 40
33.4452 14.4928 1.6205 255 40 40
33.4452 14.4928 1.6308 255 40 40
33.4452 14.4928 1.6412 255 40 40
33.4452 14.4928 1.6515 255 40 40
33.4452 14.4928 1.6619 255 40 40
33.4452 14.4928 1.6722 255 40 40
33.4452 14.4928 1.6826 255 40 40
33.4452 14.4928 1.6930 255 40 40
33.4452 14.4928 1.7033 255 40 40
33.4452 14.4928 1.7137 255 40 40
33.4452 14.4928 1.7240 255 40 40
33.4452 14.4928 1.7344 255 40 40
33.4452 14.4928 1.7447 255 40 40
33.4452 14.4928 1.7551 255 40 40
33.4452 14.4928 1.7655 255 40 40
33.4452 14.4928 1.7758 255 40 40
33.4452 14.4928 1.7862 255 40 40
33.4452 14.4928 1.7965 255 40 40
33.4452 14.4928 1.8069 255 40 40
33.4452 14.4928 1.8172 255 40 40
33.4452 14.4928 1.8276 255 40 40
33.4452 14.4928 1.8380 255 40 40
33.4452 14.4928 1.8483 255 40 40
33.4452 14.4928 1.8587 255 40 40
33.4452 14.4928 1.8690 255 40 40
33.4452 14.4928 1.8794 255 40 40
33.4452 14.4928 1.8897 255 40 40
33.4452 14.4928 1.9001 255 40 40
33.4452 14.4928 1.9105 255 40 40
33.4452 14.4928 1.9208 255 40 40
33.4452 14.4928 1.9312 255 40 40
33.4452 14.4928 1.9415 255 40 40
33.4452 14.4928 1.9519 255 40 40
33.4452 14.4928 1.9622 255 40 40
33.4452 14.4928 1.9726 255 40 40
33.6326 14.0879 0.2636 255 40 40
33.6326 14.0879 0.2740 255 40 40
33.6326 14.0879 0.2844 255 40 40
33.6326 14.0879 0.2947 255 40 40
33.6326 14.0879 0.3051 255 40 40
33.6326 14.0879 0.3154 255 40 40
33.6326 14.0879 0.3258 255 40 40
33.6326 14.0879 0.3361 255 40 40
33.6326 14.0879 0.3465 255 40 40
33.6326 14.0879 0.3569 255 40 40
33.6326 14.0879 0.3672 255 40 40
33.6326 14.0879 0.3776 255 40 40
33.6326 14.0879 0.3879 255 40 40
33.6326 14.0879 0.3983 255 40 40
33.6326 14.0879 0.4086 255 40 40
33.6326 14.0879 0.4190 255 40 40
33.6326 14.0879 0.4294 255 40 40
33.6326 14.0879 0.4397 255 40 40
33.6326 14.0879 0.4501 255 40 40
33.6326 14.0879 0.4604 255 40 40
33.6326 14.0879 0.4708 255 40 40
33.6326 14.0879 0.4811 255 40 40
33.6326 14.0879 0.4915 255 40 40
33.6326 14.0879 0.5019 255 40 40
33.6326 14.0879 0.5122 255 40 40
33.6326 14.0879 0.5226 255 40 40
33.6326 14.0879 0.5329 255 40 40
33.6326 14.0879 0.5433 255 40 40
33.6326 14.0879 0.5537 255 40 40
33.6326 14.0879 0.5640 255 40 40
33.6326 14.0879 0.5744 255 40 40
33.6326 14.0879 0.5847 255 40 40
33.6326 14.0879 0.5951 255 40 40
33.6326 14.0879 0.6054 255 40 40
33.6326 14.0879 0.6158 255 40 40
33.6326 14.0879 0.6262 255 40 40
33.6326 14.0879 0.6365 255 40 40
33.6326 14.0879 0.6469 255 40 40
33.6326 14.0879 0.6572 255 40 40
33.6326 14.0879 0.6676 255 40 40
33.6326 14.0879 0.6779 255 40 40
33.6326 14.0879 0.6883 255 40 40
33.6326 14.0879 0.6987 255 40 40
33.6326 14.0879 0.7090 255 40 40
33.6326 14.0879 0.7194 255 40 40
33.6326 14.0879 0.7297 255 40 40
33.6326 14.0879 0.7401 255 40 40
33.6326 14.0879 0.7504 255 40 40
33.6326 14.0879 0.7608 255 40 40
33.6326 14.0879 0.7712 255 40 40
33.6326 14.0879 0.7815 255 40 40
33.6326 14.0879 0.7919 255 40 40
33.6326 14.0879 0.8022 255 40 40
33.6326 14.0879 0.8126 255 40 40
33.6326 14.0879 0.8229 255 40 40
33.6326 14.0879 0.8333 255 40 40
33.6326 14.0879 0.8437 255 40 40
33.6326 14.0879 0.8540 255 40 40
33.6326 14.0879 0.8644 255 40 40
33.6326 14.0879 0.8747 255 40 40
33.6326 14.0879 0.8851 255 40 40
33.6326 14.0879 0.8954 255 40 40
33.6326 14.0879 0.9058 255 40 40
33.6326 14.0879 0.9162 255 40 40
33.6326 14.0879 0.9265 255 40 40
33.6326 14.0879 0.9369 255 40 40
33.6326 14.0879 0.9472 255 40 40
33.6326 14.0879 0.9576 255 40 40
33.6326 14.0879 0.9679 255 40 40
33.6326 14.0879 0.9783 255 40 40
33.6326 14.0879 0.9887 255 40 40
33.6326 14.0879 0.9990 255 40 40
33.6326 14.0879 1.0094 255 40 40
33.6326 14.0879 1.0197 255 40 40
33.6326 14.0879 1.0301 255 40 40
33.6326 14.0879 1.0404 255 40 40
33.6326 14.0879 1.0508 255 40 40
33.6326 14.0879 1.0612 255 40 40
33.6326 14.0879 1.0715 255 40 40
33.6326 14.0879 1.0819 255 40 40
33.6326 14.0879 1.0922 255 40 40
33.6326 14.0879 1.1026 255 40 40
33.6326 14.0879 1.1129 255 40 40
33.6326 14.0879 1.1233 255 40 40
33.6326 14.0879 1.1337 255 40 40
33.6326 14.0879 1.1440 255 40 40
33.6326 14.0879 1.1544 255 40 40
33.6326 14.0879 1.1647 255 40 40
33.6326 14.0879 1.1751 255 40 40
33.6326 14.0879 1.1854 255 40 40
33.6326 14.0879 1.1958 255 40 40
33.6326 14.0879 1.2062 255 40 40
33.6326 14.0879 1.2165 255 40 40
33.6326 14.0879 1.2269 255 40 40
33.6326 14.0879 1.2372 255 40 40
33.6326 14.0879 1.2476 255 40 40
33.6326 14.0879 1.2579 255 40 40
33.6326 14.0879 1.2683 255 40 40
33.6326 14.0879 1.2787 255 40 40
33.6326 14.0879 1.2890 255 40 40
33.6326 14.0879 1.2994 255 40 40
33.6326 14.0879 1.3097 255 40 40
33.6326 14.0879 1.3201 255 40 40
33.6326 14.0879 1.3304 255 40 40
33.6326 14.0879 1.3408 255 40 40
