ply
format ascii 1.0
element vertex 1404
property float x
property float y
property float z
property uchar red
property uchar green
property uchar blue
end_header
19.8799 -10.2819 0.7218 0 255 0
19.8799 -10.2819 0.7317 0 255 0
19.8799 -10.2819 0.7416 0 255 0
19.8799 -10.2819 0.7514 0 255 0
19.8799 -10.2819 0.7613 0 255 0
19.8799 -10.2819 0.7712 0 255 0
19.8799 -10.2819 0.7811 0 255 0
19.8799 -10.2819 0.7910 0 255 0
19.8799 -10.2819 0.8009 0 255 0
19.8799 -10.2819 0.8108 0 255 0
19.8799 -10.2819 0.8206 0 255 0
19.8799 -10.2819 0.8305 0 255 0
19.8799 -10.2819 0.8404 0 255 0
19.8799 -10.2819 0.8503 0 255 0
19.8799 -10.2819 0.8602 0 255 0
19.8799 -10.2819 0.8701 0 255 0
19.8799 -10.2819 0.8800 0 255 0
19.8799 -10.2819 0.8898 0 255 0
19.8799 -10.2819 0.8997 0 255 0
19.8799 -10.2819 0.9096 0 255 0
19.8799 -10.2819 0.9195 0 255 0
19.8799 -10.2819 0.9294 0 255 0
19.8799 -10.2819 0.9393 0 255 0
19.8799 -10.2819 0.9491 0 255 0
19.8799 -10.2819 0.9590 0 255 0
19.8799 -10.2819 0.9689 0 255 0
19.8799 -10.2819 0.9788 0 255 0
19.8799 -10.2819 0.9887 0 255 0
19.8799 -10.2819 0.9986 0 255 0
19.8799 -10.2819 1.0085 0 255 0
19.8799 -10.2819 1.0183 0 255 0
19.8799 -10.2819 1.0282 0 255 0
19.8799 -10.2819 1.0381 0 255 0
19.8799 -10.2819 1.0480 0 255 0
19.8799 -10.2819 1.0579 0 255 0
19.8799 -10.2819 1.0678 0 255 0
19.8799 -10.2819 1.0776 0 255 0
19.8799 -10.2819 1.0875 0 255 0
19.8799 -10.2819 1.0974 0 255 0
19.8799 -10.2819 1.1073 0 255 0
19.8799 -10.2819 1.1172 0 255 0
19.8799 -10.2819 1.1271 0 255 0
19.8799 -10.2819 1.1370 0 255 0
19.8799 -10.2819 1.1468 0 255 0
19.8799 -10.2819 1.1567 0 255 0
19.8799 -10.2819 1.1666 0 255 0
19.8799 -10.2819 1.1765 0 255 0
19.8799 -10.2819 1.1864 0 255 0
19.8799 -10.2819 1.1963 0 255 0
19.8799 -10.2819 1.2062 0 255 0
19.8799 -10.2819 1.2160 0 255 0
19.8799 -10.2819 1.2259 0 255 0
19.8799 -10.2819 1.2358 0 255 0
19.8799 -10.2819 1.2457 0 255 0
19.8799 -10.2819 1.2556 0 255 0
19.8799 -10.2819 1.2655 0 255 0
19.8799 -10.2819 1.2753 0 255 0
19.8799 -10.2819 1.2852 0 255 0
19.8799 -10.2819 1.2951 0 255 0
19.8799 -10.2819 1.3050 0 255 0
19.8799 -10.2819 1.3149 0 255 0
19.8799 -10.2819 1.3248 0 255 0
19.8799 -10.2819 1.3347 0 255 0
19.8799 -10.2819 1.3445 0 255 0
19.8799 -10.2819 1.3544 0 255 0
19.8799 -10.2819 1.3643 0 255 0
19.8799 -10.2819 1.3742 0 255 0
19.8799 -10.2819 1.3841 0 255 0
19.8799 -10.2819 1.3940 0 255 0
19.8799 -10.2819 1.4038 0 255 0
19.8799 -10.2819 1.4137 0 255 0
19.8799 -10.2819 1.4236 0 255 0
19.8799 -10.2819 1.4335 0 255 0
19.8799 -10.2819 1.4434 0 255 0
19.8799 -10.2819 1.4533 0 255 0
19.8799 -10.2819 1.4632 0 255 0
19.8799 -10.2819 1.4730 0 255 0
19.8799 -10.2819 1.4829 0 255 0
19.8799 -10.2819 1.4928 0 255 0
19.8799 -10.2819 1.5027 0 255 0
19.8799 -10.2819 1.5126 0 255 0
19.8799 -10.2819 1.5225 0 255 0
19.8799 -10.2819 1.5324 0 255 0
19.8799 -10.2819 1.5422 0 255 0
19.8799 -10.2819 1.5521 0 255 0
19.8799 -10.2819 1.5620 0 255 0
19.8799 -10.2819 1.5719 0 255 0
19.8799 -10.2819 1.5818 0 255 0
19.8799 -10.2819 1.5917 0 255 0
19.8799 -10.2819 1.6015 0 255 0
19.8799 -10.2819 1.6114 0 255 0
19.8799 -10.2819 1.6213 0 255 0
19.8799 -10.2819 1.6312 0 255 0
19.8799 -10.2819 1.6411 0 255 0
19.8799 -10.2819 1.6510 0 255 0
19.8799 -10.2819 1.6609 0 255 0
19.8799 -10.2819 1.6707 0 255 0
19.8799 -10.2819 1.6806 0 255 0
19.8799 -10.2819 1.6905 0 255 0
19.8799 -10.2819 1.7004 0 255 0
19.8799 -10.2819 1.7103 0 255 0
19.8799 -10.2819 1.7202 0 255 0
19.8799 -10.2819 1.7300 0 255 0
19.8799 -10.2819 1.7399 0 255 0
19.8799 -10.2819 1.7498 0 255 0
19.8799 -10.2819 1.7597 0 255 0
19.8799 -10.2819 1.7696 0 255 0
19.8799 -10.2819 1.7795 0 255 0
19.8799 -10.2819 1.7894 0 255 0
19.8799 -10.2819 1.7992 0 255 0
19.8799 -10.2819 1.8091 0 255 0
19.8799 -10.2819 1.8190 0 255 0
19.8799 -10.2819 1.8289 0 255 0
19.8799 -10.2819 1.8388 0 255 0
19.8799 -10.2819 1.8487 0 255 0
19.8799 -10.2819 1.8586 0 255 0
19.8799 -10.2819 1.8684 0 255 0
19.8799 -10.2819 1.8783 0 255 0
19.8799 -10.2819 1.8882 0 255 0
20.1115 -8.5897 0.2572 0 255 0
20.1115 -8.5897 0.2671 0 255 0
20.1115 -8.5897 0.2770 0 255 0
20.1115 -8.5897 0.2869 0 255 0
20.1115 -8.5897 0.2967 0 255 0
20.1115 -8.5897 0.3066 0 255 0
20.1115 -8.5897 0.3165 0 255 0
20.1115 -8.5897 0.3264 0 255 0
20.1115 -8.5897 0.3363 0 255 0
20.1115 -8.5897 0.3462 0 255 0
20.1115 -8.5897 0.3561 0 255 0
20.1115 -8.5897 0.3659 0 255 0
20.1115 -8.5897 0.3758 0 255 0
20.1115 -8.5897 0.3857 0 255 0
20.1115 -8.5897 0.3956 0 255 0
20.1115 -8.5897 0.4055 0 255 0
20.1115 -8.5897 0.4154 0 255 0
20.1115 -8.5897 0.4252 0 255 0
20.1115 -8.5897 0.4351 0 255 0
20.1115 -8.5897 0.4450 0 255 0
20.1115 -8.5897 0.4549 0 255 0
20.1115 -8.5897 0.4648 0 255 0
20.1115 -8.5897 0.4747 0 255 0
20.1115 -8.5897 0.4846 0 255 0
20.1115 -8.5897 0.4944 0 255 0
20.1115 -8.5897 0.5043 0 255 0
20.1115 -8.5897 0.5142 0 255 0
20.1115 -8.5897 0.5241 0 255 0
20.1115 -8.5897 0.5340 0 255 0
20.1115 -8.5897 0.5439 0 255 0
20.1115 -8.5897 0.5538 0 255 0
20.1115 -8.5897 0.5636 0 255 0
20.1115 -8.5897 0.5735 0 255 0
20.1115 -8.5897 0.5834 0 255 0
20.1115 -8.5897 0.5933 0 255 0
20.1115 -8.5897 0.6032 0 255 0
20.1115 -8.5897 0.6131 0 255 0
20.1115 -8.5897 0.6229 0 255 0
20.1115 -8.5897 0.6328 0 255 0
20.1115 -8.5897 0.6427 0 255 0
20.1115 -8.5897 0.6526 0 255 0
20.1115 -8.5897 0.6625 0 255 0
20.1115 -8.5897 0.6724 0 255 0
20.1115 -8.5897 0.6823 0 255 0
20.1115 -8.5897 0.6921 0 255 0
20.1115 -8.5897 0.7020 0 255 0
20.1115 -8.5897 0.7119 0 255 0
20.1115 -8.5897 0.7218 0 255 0
20.1115 -8.5897 0.7317 0 255 0
20.1115 -8.5897 0.7416 0 255 0
20.1115 -8.5897 0.7514 0 255 0
20.1115 -8.5897 0.7613 0 255 0
20.1115 -8.5897 0.7712 0 255 0
20.1115 -8.5897 0.7811 0 255 0
20.1115 -8.5897 0.7910 0 255 0
20.1115 -8.5897 0.8009 0 255 0
20.1115 -8.5897 0.8108 0 255 0
20.1115 -8.5897 0.8206 0 255 0
20.1115 -8.5897 0.8305 0 255 0
20.1115 -8.5897 0.8404 0 255 0
20.1115 -8.5897 0.8503 0 255 0
20.1115 -8.5897 0.8602 0 255 0
20.1115 -8.5897 0.8701 0 255 0
20.1115 -8.5897 0.8800 0 255 0
20.1115 -8.5897 0.8898 0 255 0
20.1115 -8.5897 0.8997 0 255 0
20.1115 -8.5897 0.9096 0 255 0
20.1115 -8.5897 0.9195 0 255 0
20.1115 -8.5897 0.9294 0 255 0
20.1115 -8.5897 0.9393 0 255 0
20.1115 -8.5897 0.9491 0 255 0
20.1115 -8.5897 0.9590 0 255 0
20.1115 -8.5897 0.9689 0 255 0
20.1115 -8.5897 0.9788 0 255 0
20.1115 -8.5897 0.9887 0 255 0
20.1115 -8.5897 0.9986 0 255 0
20.1115 -8.5897 1.0085 0 255 0
20.1115 -8.5897 1.0183 0 255 0
20.1115 -8.5897 1.0282 0 255 0
20.1115 -8.5897 1.0381 0 255 0
20.1115 -8.5897 1.0480 0 255 0
20.1115 -8.5897 1.0579 0 255 0
20.1115 -8.5897 1.0678 0 255 0
20.1115 -8.5897 1.0776 0 255 0
20.1115 -8.5897 1.0875 0 255 0
20.1115 -8.5897 1.0974 0 255 0
20.1115 -8.5897 1.1073 0 255 0
20.1115 -8.5897 1.1172 0 255 0
20.1115 -8.5897 1.1271 0 255 0
20.1115 -8.5897 1.1370 0 255 0
20.1115 -8.5897 1.1468 0 255 0
20.1115 -8.5897 1.1567 0 255 0
20.1115 -8.5897 1.1666 0 255 0
20.1115 -8.5897 1.1765 0 255 0
20.1115 -8.5897 1.1864 0 255 0
20.1115 -8.5897 1.1963 0 255 0
20.1115 -8.5897 1.2062 0 255 0
20.1115 -8.5897 1.2160 0 255 0
20.1115 -8.5897 1.2259 0 255 0
20.1115 -8.5897 1.2358 0 255 0
20.1115 -8.5897 1.2457 0 255 0
20.1115 -8.5897 1.2556 0 255 0
20.1115 -8.5897 1.2655 0 255 0
20.1115 -8.5897 1.2753 0 255 0
20.1115 -8.5897 1.2852 0 255 0
20.1115 -8.5897 1.2951 0 255 0
20.1115 -8.5897 1.3050 0 255 0
20.1115 -8.5897 1.3149 0 255 0
20.1115 -8.5897 1.3248 0 255 0
20.1115 -8.5897 1.3347 0 255 0
20.1115 -8.5897 1.3445 0 255 0
20.1115 -8.5897 1.3544 0 255 0
20.1115 -8.5897 1.3643 0 255 0
20.1115 -8.5897 1.3742 0 255 0
20.1115 -8.5897 1.3841 0 255 0
20.1115 -8.5897 1.3940 0 255 0
20.1115 -8.5897 1.4038 0 255 0
20.1115 -8.5897 1.4137 0 255 0
20.1115 -8.5897 1.4236 0 255 0
20.1115 -8.5897 1.4335 0 255 0
20.1115 -8.5897 1.4434 0 255 0
20.1115 -8.5897 1.4533 0 255 0
20.1115 -8.5897 1.4632 0 255 0
20.1115 -8.5897 1.4730 0 255 0
20.1115 -8.5897 1.4829 0 255 0
20.1115 -8.5897 1.4928 0 255 0
20.1115 -8.5897 1.5027 0 255 0
20.1115 -8.5897 1.5126 0 255 0
20.1115 -8.5897 1.5225 0 255 0
20.1115 -8.5897 1.5324 0 255 0
20.1115 -8.5897 1.5422 0 255 0
20.1115 -8.5897 1.5521 0 255 0
20.1115 -8.5897 1.5620 0 255 0
20.1115 -8.5897 1.5719 0 255 0
20.1115 -8.5897 1.5818 0 255 0
20.1115 -8.5897 1.5917 0 255 0
20.1115 -8.5897 1.6015 0 255 0
20.1115 -8.5897 1.6114 0 255 0
20.1115 -8.5897 1.6213 0 255 0
20.1115 -8.5897 1.6312 0 255 0
20.1115 -8.5897 1.6411 0 255 0
20.1115 -8.5897 1.6510 0 255 0
20.1115 -8.5897 1.6609 0 255 0
20.1115 -8.5897 1.6707 0 255 0
20.1115 -8.5897 1.6806 0 255 0
20.1115 -8.5897 1.6905 0 255 0
20.1115 -8.5897 1.7004 0 255 0
20.1115 -8.5897 1.7103 0 255 0
20.1115 -8.5897 1.7202 0 255 0
20.1115 -8.5897 1.7300 0 255 0
20.1115 -8.5897 1.7399 0 255 0
20.1115 -8.5897 1.7498 0 255 0
20.1115 -8.5897 1.7597 0 255 0
20.1115 -8.5897 1.7696 0 255 0
20.1115 -8.5897 1.7795 0 255 0
20.1115 -8.5897 1.7894 0 255 0
20.1115 -8.5897 1.7992 0 255 0
20.1115 -8.5897 1.8091 0 255 0
20.1115 -8.5897 1.8190 0 255 0
20.1115 -8.5897 1.8289 0 255 0
20.1115 -8.5897 1.8388 0 255 0
20.1115 -8.5897 1.8487 0 255 0
20.1115 -8.5897 1.8586 0 255 0
20.1115 -8.5897 1.8684 0 255 0
20.1115 -8.5897 1.8783 0 255 0
20.1115 -8.5897 1.8882 0 255 0
16.1386 -8.0460 0.2572 0 255 0
16.1386 -8.0460 0.2671 0 255 0
16.1386 -8.0460 0.2770 0 255 0
16.1386 -8.0460 0.2869 0 255 0
16.1386 -8.0460 0.2967 0 255 0
16.1386 -8.0460 0.3066 0 255 0
16.1386 -8.0460 0.3165 0 255 0
16.1386 -8.0460 0.3264 0 255 0
16.1386 -8.0460 0.3363 0 255 0
16.1386 -8.0460 0.3462 0 255 0
16.1386 -8.0460 0.3561 0 255 0
16.1386 -8.0460 0.3659 0 255 0
16.1386 -8.0460 0.3758 0 255 0
16.1386 -8.0460 0.3857 0 255 0
16.1386 -8.0460 0.3956 0 255 0
16.1386 -8.0460 0.4055 0 255 0
16.1386 -8.0460 0.4154 0 255 0
16.1386 -8.0460 0.4252 0 255 0
16.1386 -8.0460 0.4351 0 255 0
16.1386 -8.0460 0.4450 0 255 0
16.1386 -8.0460 0.4549 0 255 0
16.1386 -8.0460 0.4648 0 255 0
16.1386 -8.0460 0.4747 0 255 0
16.1386 -8.0460 0.4846 0 255 0
16.1386 -8.0460 0.4944 0 255 0
16.1386 -8.0460 0.5043 0 255 0
16.1386 -8.0460 0.5142 0 255 0
16.1386 -8.0460 0.5241 0 255 0
16.1386 -8.0460 0.5340 0 255 0
16.1386 -8.0460 0.5439 0 255 0
16.1386 -8.0460 0.5538 0 255 0
16.1386 -8.0460 0.5636 0 255 0
16.1386 -8.0460 0.5735 0 255 0
16.1386 -8.0460 0.5834 0 255 0
16.1386 -8.0460 0.5933 0 255 0
16.1386 -8.0460 0.6032 0 255 0
16.1386 -8.0460 0.6131 0 255 0
16.1386 -8.0460 0.6229 0 255 0
16.1386 -8.0460 0.6328 0 255 0
16.1386 -8.0460 0.6427 0 255 0
16.1386 -8.0460 0.6526 0 255 0
16.1386 -8.0460 0.6625 0 255 0
16.1386 -8.0460 0.6724 0 255 0
16.1386 -8.0460 0.6823 0 255 0
16.1386 -8.0460 0.6921 0 255 0
16.1386 -8.0460 0.7020 0 255 0
16.1386 -8.0460 0.7119 0 255 0
16.1386 -8.0460 0.7218 0 255 0
16.1386 -8.0460 0.7317 0 255 0
16.1386 -8.0460 0.7416 0 255 0
16.1386 -8.0460 0.7514 0 255 0
16.1386 -8.0460 0.7613 0 255 0
16.1386 -8.0460 0.7712 0 255 0
16.1386 -8.0460 0.7811 0 255 0
16.1386 -8.0460 0.7910 0 255 0
16.1386 -8.0460 0.8009 0 255 0
16.1386 -8.0460 0.8108 0 255 0
16.1386 -8.0460 0.8206 0 255 0
16.1386 -8.0460 0.8305 0 255 0
16.1386 -8.0460 0.8404 0 255 0
16.1386 -8.0460 0.8503 0 255 0
16.1386 -8.0460 0.8602 0 255 0
16.1386 -8.0460 0.8701 0 255 0
16.1386 -8.0460 0.8800 0 255 0
16.1386 -8.0460 0.8898 0 255 0
16.1386 -8.0460 0.8997 0 255 0
16.1386 -8.0460 0.9096 0 255 0
16.1386 -8.0460 0.9195 0 255 0
16.1386 -8.0460 0.9294 0 255 0
16.1386 -8.0460 0.9393 0 255 0
16.1386 -8.0460 0.9491 0 255 0
16.1386 -8.0460 0.9590 0 255 0
16.1386 -8.0460 0.9689 0 255 0
16.1386 -8.0460 0.9788 0 255 0
16.1386 -8.0460 0.9887 0 255 0
16.1386 -8.0460 0.9986 0 255 0
16.1386 -8.0460 1.0085 0 255 0
16.1386 -8.0460 1.0183 0 255 0
16.1386 -8.0460 1.0282 0 255 0
16.1386 -8.0460 1.0381 0 255 0
16.1386 -8.0460 1.0480 0 255 0
16.1386 -8.0460 1.0579 0 255 0
16.1386 -8.0460 1.0678 0 255 0
16.1386 -8.0460 1.0776 0 255 0
16.1386 -8.0460 1.0875 0 255 0
16.1386 -8.0460 1.0974 0 255 0
16.1386 -8.0460 1.1073 0 255 0
16.1386 -8.0460 1.1172 0 255 0
16.1386 -8.0460 1.1271 0 255 0
16.1386 -8.0460 1.1370 0 255 0
16.1386 -8.0460 1.1468 0 255 0
16.1386 -8.0460 1.1567 0 255 0
16.1386 -8.0460 1.1666 0 255 0
16.1386 -8.0460 1.1765 0 255 0
16.1386 -8.0460 1.1864 0 255 0
16.1386 -8.0460 1.1963 0 255 0
16.1386 -8.0460 1.2062 0 255 0
16.1386 -8.0460 1.2160 0 255 0
16.1386 -8.0460 1.2259 0 255 0
16.1386 -8.0460 1.2358 0 255 0
16.1386 -8.0460 1.2457 0 255 0
16.1386 -8.0460 1.2556 0 255 0
16.1386 -8.0460 1.2655 0 255 0
16.1386 -8.0460 1.2753 0 255 0
16.1386 -8.0460 1.2852 0 255 0
16.1386 -8.0460 1.2951 0 255 0
16.1386 -8.0460 1.3050 0 255 0
16.1386 -8.0460 1.3149 0 255 0
16.1386 -8.0460 1.3248 0 255 0
16.1386 -8.0460 1.3347 0 255 0
16.1386 -8.0460 1.3445 0 255 0
16.1386 -8.0460 1.3544 0 255 0
16.1386 -8.0460 1.3643 0 255 0
16.1386 -8.0460 1.3742 0 255 0
16.1386 -8.0460 1.3841 0 255 0
16.1386 -8.0460 1.3940 0 255 0
16.1386 -8.0460 1.4038 0 255 0
16.1386 -8.0460 1.4137 0 255 0
16.1386 -8.0460 1.4236 0 255 0
16.1386 -8.0460 1.4335 0 255 0
16.1386 -8.0460 1.4434 0 255 0
16.1386 -8.0460 1.4533 0 255 0
16.1386 -8.0460 1.4632 0 255 0
16.1386 -8.0460 1.4730 0 255 0
16.1386 -8.0460 1.4829 0 255 0
16.1386 -8.0460 1.4928 0 255 0
16.1386 -8.0460 1.5027 0 255 0
16.1386 -8.0460 1.5126 0 255 0
16.1386 -8.0460 1.5225 0 255 0
16.1386 -8.0460 1.5324 0 255 0
16.1386 -8.0460 1.5422 0 255 0
16.1386 -8.0460 1.5521 0 255 0
16.1386 -8.0460 1.5620 0 255 0
16.1386 -8.0460 1.5719 0 255 0
16.1386 -8.0460 1.5818 0 255 0
16.1386 -8.0460 1.5917 0 255 0
16.1386 -8.0460 1.6015 0 255 0
16.1386 -8.0460 1.6114 0 255 0
16.1386 -8.0460 1.6213 0 255 0
16.1386 -8.0460 1.6312 0 255 0
16.1386 -8.0460 1.6411 0 255 0
16.1386 -8.0460 1.6510 0 255 0
16.1386 -8.0460 1.6609 0 255 0
16.1386 -8.0460 1.6707 0 255 0
16.1386 -8.0460 1.6806 0 255 0
16.1386 -8.0460 1.6905 0 255 0
16.1386 -8.0460 1.7004 0 255 0
16.1386 -8.0460 1.7103 0 255 0
16.1386 -8.0460 1.7202 0 255 0
16.1386 -8.0460 1.7300 0 255 0
16.1386 -8.0460 1.7399 0 255 0
16.1386 -8.0460 1.7498 0 255 0
16.1386 -8.0460 1.7597 0 255 0
16.1386 -8.0460 1.7696 0 255 0
16.1386 -8.0460 1.7795 0 255 0
16.1386 -8.0460 1.7894 0 255 0
16.1386 -8.0460 1.7992 0 255 0
16.1386 -8.0460 1.8091 0 255 0
16.1386 -8.0460 1.8190 0 255 0
16.1386 -8.0460 1.8289 0 255 0
16.1386 -8.0460 1.8388 0 255 0
16.1386 -8.0460 1.8487 0 255 0
16.1386 -8.0460 1.8586 0 255 0
16.1386 -8.0460 1.8684 0 255 0
16.1386 -8.0460 1.8783 0 255 0
16.1386 -8.0460 1.8882 0 255 0
15.9840 -9.8809 0.3716 100 150 255
16.0088 -9.8847 0.3716 100 150 255
16.0336 -9.8885 0.3716 100 150 255
16.0584 -9.8923 0.3716 100 150 255
16.0833 -9.8961 0.3716 100 150 255
16.1081 -9.8999 0.3716 100 150 255
16.1329 -9.9037 0.3716 100 150 255
16.1577 -9.9075 0.3716 100 150 255
16.1825 -9.9113 0.3716 100 150 255
16.2073 -9.9151 0.3716 100 150 255
16.2321 -9.9190 0.3716 100 150 255
16.2569 -9.9228 0.3716 100 150 255
16.2818 -9.9266 0.3716 100 150 255
16.3066 -9.9304 0.3716 100 150 255
16.3314 -9.9342 0.3716 100 150 255
16.3562 -9.9380 0.3716 100 150 255
16.3810 -9.9418 0.3716 100 150 255
16.4058 -9.9456 0.3716 100 150 255
16.4306 -9.9494 0.3716 100 150 255
16.4554 -9.9532 0.3716 100 150 255
16.4802 -9.9570 0.3716 100 150 255
16.5051 -9.9608 0.3716 100 150 255
16.5299 -9.9646 0.3716 100 150 255
16.5547 -9.9684 0.3716 100 150 255
16.5795 -9.9722 0.3716 100 150 255
16.6043 -9.9760 0.3716 100 150 255
16.6291 -9.9798 0.3716 100 150 255
16.6539 -9.9836 0.3716 100 150 255
16.6787 -9.9874 0.3716 100 150 255
16.7036 -9.9912 0.3716 100 150 255
16.7284 -9.9950 0.3716 100 150 255
16.7532 -9.9988 0.3716 100 150 255
16.7780 -10.0026 0.3716 100 150 255
16.8028 -10.0064 0.3716 100 150 255
16.8276 -10.0103 0.3716 100 150 255
16.8524 -10.0141 0.3716 100 150 255
16.8772 -10.0179 0.3716 100 150 255
16.9020 -10.0217 0.3716 100 150 255
16.9269 -10.0255 0.3716 100 150 255
16.9517 -10.0293 0.3716 100 150 255
16.9765 -10.0331 0.3716 100 150 255
17.0013 -10.0369 0.3716 100 150 255
17.0261 -10.0407 0.3716 100 150 255
17.0509 -10.0445 0.3716 100 150 255
17.0757 -10.0483 0.3716 100 150 255
17.1005 -10.0521 0.3716 100 150 255
17.1254 -10.0559 0.3716 100 150 255
17.1502 -10.0597 0.3716 100 150 255
17.1750 -10.0635 0.3716 100 150 255
17.1998 -10.0673 0.3716 100 150 255
17.2246 -10.0711 0.3716 100 150 255
17.2494 -10.0749 0.3716 100 150 255
17.2742 -10.0787 0.3716 100 150 255
17.2990 -10.0825 0.3716 100 150 255
17.3238 -10.0863 0.3716 100 150 255
17.3487 -10.0901 0.3716 100 150 255
17.3735 -10.0939 0.3716 100 150 255
17.3983 -10.0978 0.3716 100 150 255
17.4231 -10.1016 0.3716 100 150 255
17.4479 -10.1054 0.3716 100 150 255
17.4727 -10.1092 0.3716 100 150 255
17.4975 -10.1130 0.3716 100 150 255
17.5223 -10.1168 0.3716 100 150 255
17.5471 -10.1206 0.3716 100 150 255
17.5720 -10.1244 0.3716 100 150 255
17.5968 -10.1282 0.3716 100 150 255
17.6216 -10.1320 0.3716 100 150 255
17.6464 -10.1358 0.3716 100 150 255
17.6712 -10.1396 0.3716 100 150 255
17.6960 -10.1434 0.3716 100 150 255
17.7208 -10.1472 0.3716 100 150 255
17.7456 -10.1510 0.3716 100 150 255
17.7705 -10.1548 0.3716 100 150 255
17.7953 -10.1586 0.3716 100 150 255
17.8201 -10.1624 0.3716 100 150 255
17.8449 -10.1662 0.3716 100 150 255
17.8697 -10.1700 0.3716 100 150 255
17.8945 -10.1738 0.3716 100 150 255
17.9193 -10.1776 0.3716 100 150 255
17.9441 -10.1814 0.3716 100 150 255
17.9689 -10.1853 0.3716 100 150 255
17.9938 -10.1891 0.3716 100 150 255
18.0186 -10.1929 0.3716 100 150 255
18.0434 -10.1967 0.3716 100 150 255
18.0682 -10.2005 0.3716 100 150 255
18.0930 -10.2043 0.3716 100 150 255
18.1178 -10.2081 0.3716 100 150 255
18.1426 -10.2119 0.3716 100 150 255
18.1674 -10.2157 0.3716 100 150 255
18.1923 -10.2195 0.3716 100 150 255
18.2171 -10.2233 0.3716 100 150 255
18.2419 -10.2271 0.3716 100 150 255
18.2667 -10.2309 0.3716 100 150 255
18.2915 -10.2347 0.3716 100 150 255
18.3163 -10.2385 0.3716 100 150 255
18.3411 -10.2423 0.3716 100 150 255
18.3659 -10.2461 0.3716 100 150 255
18.3907 -10.2499 0.3716 100 150 255
18.4156 -10.2537 0.3716 100 150 255
18.4404 -10.2575 0.3716 100 150 255
18.4652 -10.2613 0.3716 100 150 255
18.4900 -10.2651 0.3716 100 150 255
18.5148 -10.2689 0.3716 100 150 255
18.5396 -10.2728 0.3716 100 150 255
18.5644 -10.2766 0.3716 100 150 255
18.5892 -10.2804 0.3716 100 150 255
18.6140 -10.2842 0.3716 100 150 255
18.6389 -10.2880 0.3716 100 150 255
18.6637 -10.2918 0.3716 100 150 255
18.6885 -10.2956 0.3716 100 150 255
18.7133 -10.2994 0.3716 100 150 255
18.7381 -10.3032 0.3716 100 150 255
18.7629 -10.3070 0.3716 100 150 255
18.7877 -10.3108 0.3716 100 150 255
18.8125 -10.3146 0.3716 100 150 255
18.8374 -10.3184 0.3716 100 150 255
18.8622 -10.3222 0.3716 100 150 255
18.8870 -10.3260 0.3716 100 150 255
18.9118 -10.3298 0.3716 100 150 255
18.9366 -10.3336 0.3716 100 150 255
18.9614 -10.3374 0.3716 100 150 255
18.9862 -10.3412 0.3716 100 150 255
19.0110 -10.3450 0.3716 100 150 255
19.0358 -10.3488 0.3716 100 150 255
19.0607 -10.3526 0.3716 100 150 255
19.0855 -10.3564 0.3716 100 150 255
19.1103 -10.3603 0.3716 100 150 255
19.1351 -10.3641 0.3716 100 150 255
19.1599 -10.3679 0.3716 100 150 255
19.1847 -10.3717 0.3716 100 150 255
19.2095 -10.3755 0.3716 100 150 255
19.2343 -10.3793 0.3716 100 150 255
19.2592 -10.3831 0.3716 100 150 255
19.2840 -10.3869 0.3716 100 150 255
19.3088 -10.3907 0.3716 100 150 255
19.3336 -10.3945 0.3716 100 150 255
19.3584 -10.3983 0.3716 100 150 255
19.3832 -10.4021 0.3716 100 150 255
19.4080 -10.4059 0.3716 100 150 255
19.4328 -10.4097 0.3716 100 150 255
19.4576 -10.4135 0.3716 100 150 255
19.4825 -10.4173 0.3716 100 150 255
19.5073 -10.4211 0.3716 100 150 255
19.5321 -10.4249 0.3716 100 150 255
19.5569 -10.4287 0.3716 100 150 255
19.5817 -10.4325 0.3716 100 150 255
19.6065 -10.4363 0.3716 100 150 255
19.6313 -10.4401 0.3716 100 150 255
19.6561 -10.4439 0.3716 100 150 255
19.6810 -10.4477 0.3716 100 150 255
19.7058 -10.4516 0.3716 100 150 255
19.7306 -10.4554 0.3716 100 150 255
19.7554 -10.4592 0.3716 100 150 255
19.7802 -10.4630 0.3716 100 150 255
19.8050 -10.4668 0.3716 100 150 255
19.8298 -10.4706 0.3716 100 150 255
19.8546 -10.4744 0.3716 100 150 255
19.8794 -10.4782 0.3716 100 150 255
19.9043 -10.4820 0.3716 100 150 255
19.9291 -10.4858 0.3716 100 150 255
19.9539 -10.4896 0.3716 100 150 255
19.9787 -10.4934 0.3716 100 150 255
20.0035 -10.4972 0.3716 100 150 255
20.0283 -10.5010 0.3716 100 150 255
20.0531 -10.5048 0.3716 100 150 255
20.0779 -10.5086 0.3716 100 150 255
20.0779 -10.5086 0.3716 100 150 255
20.0794 -10.4992 0.3716 100 150 255
20.0808 -10.4899 0.3716 100 150 255
20.0822 -10.4805 0.3716 100 150 255
20.0837 -10.4711 0.3716 100 150 255
20.0851 -10.4618 0.3716 100 150 255
20.0866 -10.4524 0.3716 100 150 255
20.0880 -10.4430 0.3716 100 150 255
20.0894 -10.4337 0.3716 100 150 255
20.0909 -10.4243 0.3716 100 150 255
20.0923 -10.4149 0.3716 100 150 255
20.0937 -10.4055 0.3716 100 150 255
20.0952 -10.3962 0.3716 100 150 255
20.0966 -10.3868 0.3716 100 150 255
20.0981 -10.3774 0.3716 100 150 255
20.0995 -10.3681 0.3716 100 150 255
20.1009 -10.3587 0.3716 100 150 255
20.1024 -10.3493 0.3716 100 150 255
20.1038 -10.3400 0.3716 100 150 255
20.1052 -10.3306 0.3716 100 150 255
20.1067 -10.3212 0.3716 100 150 255
20.1081 -10.3118 0.3716 100 150 255
20.1095 -10.3025 0.3716 100 150 255
20.1110 -10.2931 0.3716 100 150 255
20.1124 -10.2837 0.3716 100 150 255
20.1139 -10.2744 0.3716 100 150 255
20.1153 -10.2650 0.3716 100 150 255
20.1167 -10.2556 0.3716 100 150 255
20.1182 -10.2463 0.3716 100 150 255
20.1196 -10.2369 0.3716 100 150 255
20.1210 -10.2275 0.3716 100 150 255
20.1225 -10.2181 0.3716 100 150 255
20.1239 -10.2088 0.3716 100 150 255
20.1254 -10.1994 0.3716 100 150 255
20.1268 -10.1900 0.3716 100 150 255
20.1282 -10.1807 0.3716 100 150 255
20.1297 -10.1713 0.3716 100 150 255
20.1311 -10.1619 0.3716 100 150 255
20.1325 -10.1525 0.3716 100 150 255
20.1340 -10.1432 0.3716 100 150 255
20.1354 -10.1338 0.3716 100 150 255
20.1368 -10.1244 0.3716 100 150 255
20.1383 -10.1151 0.3716 100 150 255
20.1397 -10.1057 0.3716 100 150 255
20.1412 -10.0963 0.3716 100 150 255
20.1426 -10.0870 0.3716 100 150 255
20.1440 -10.0776 0.3716 100 150 255
20.1455 -10.0682 0.3716 100 150 255
20.1469 -10.0588 0.3716 100 150 255
20.1483 -10.0495 0.3716 100 150 255
20.1498 -10.0401 0.3716 100 150 255
20.1512 -10.0307 0.3716 100 150 255
20.1526 -10.0214 0.3716 100 150 255
20.1541 -10.0120 0.3716 100 150 255
20.1555 -10.0026 0.3716 100 150 255
20.1570 -9.9933 0.3716 100 150 255
20.1584 -9.9839 0.3716 100 150 255
20.1598 -9.9745 0.3716 100 150 255
20.1613 -9.9651 0.3716 100 150 255
20.1627 -9.9558 0.3716 100 150 255
20.1641 -9.9464 0.3716 100 150 255
20.1656 -9.9370 0.3716 100 150 255
20.1670 -9.9277 0.3716 100 150 255
20.1685 -9.9183 0.3716 100 150 255
20.1699 -9.9089 0.3716 100 150 255
20.1713 -9.8995 0.3716 100 150 255
20.1728 -9.8902 0.3716 100 150 255
20.1742 -9.8808 0.3716 100 150 255
20.1756 -9.8714 0.3716 100 150 255
20.1771 -9.8621 0.3716 100 150 255
20.1785 -9.8527 0.3716 100 150 255
20.1799 -9.8433 0.3716 100 150 255
20.1814 -9.8340 0.3716 100 150 255
20.1828 -9.8246 0.3716 100 150 255
20.1843 -9.8152 0.3716 100 150 255
20.1857 -9.8058 0.3716 100 150 255
20.1871 -9.7965 0.3716 100 150 255
20.1886 -9.7871 0.3716 100 150 255
20.1900 -9.7777 0.3716 100 150 255
20.1914 -9.7684 0.3716 100 150 255
20.1929 -9.7590 0.3716 100 150 255
20.1943 -9.7496 0.3716 100 150 255
20.1957 -9.7403 0.3716 100 150 255
20.1972 -9.7309 0.3716 100 150 255
20.1986 -9.7215 0.3716 100 150 255
20.2001 -9.7121 0.3716 100 150 255
20.2015 -9.7028 0.3716 100 150 255
20.2029 -9.6934 0.3716 100 150 255
20.2044 -9.6840 0.3716 100 150 255
20.2058 -9.6747 0.3716 100 150 255
20.2072 -9.6653 0.3716 100 150 255
20.2087 -9.6559 0.3716 100 150 255
20.2101 -9.6466 0.3716 100 150 255
20.2116 -9.6372 0.3716 100 150 255
20.2130 -9.6278 0.3716 100 150 255
20.2144 -9.6184 0.3716 100 150 255
20.2159 -9.6091 0.3716 100 150 255
20.2173 -9.5997 0.3716 100 150 255
20.2187 -9.5903 0.3716 100 150 255
20.2202 -9.5810 0.3716 100 150 255
20.2216 -9.5716 0.3716 100 150 255
20.2230 -9.5622 0.3716 100 150 255
20.2245 -9.5528 0.3716 100 150 255
20.2259 -9.5435 0.3716 100 150 255
20.2274 -9.5341 0.3716 100 150 255
20.2288 -9.5247 0.3716 100 150 255
20.2302 -9.5154 0.3716 100 150 255
20.2317 -9.5060 0.3716 100 150 255
20.2331 -9.4966 0.3716 100 150 255
20.2345 -9.4873 0.3716 100 150 255
20.2360 -9.4779 0.3716 100 150 255
20.2374 -9.4685 0.3716 100 150 255
20.2389 -9.4591 0.3716 100 150 255
20.2403 -9.4498 0.3716 100 150 255
20.2417 -9.4404 0.3716 100 150 255
20.2432 -9.4310 0.3716 100 150 255
20.2446 -9.4217 0.3716 100 150 255
20.2460 -9.4123 0.3716 100 150 255
20.2475 -9.4029 0.3716 100 150 255
20.2489 -9.3936 0.3716 100 150 255
20.2503 -9.3842 0.3716 100 150 255
20.2518 -9.3748 0.3716 100 150 255
20.2532 -9.3654 0.3716 100 150 255
20.2547 -9.3561 0.3716 100 150 255
20.2561 -9.3467 0.3716 100 150 255
20.2575 -9.3373 0.3716 100 150 255
20.2590 -9.3280 0.3716 100 150 255
20.2604 -9.3186 0.3716 100 150 255
20.2618 -9.3092 0.3716 100 150 255
20.2633 -9.2999 0.3716 100 150 255
20.2647 -9.2905 0.3716 100 150 255
20.2661 -9.2811 0.3716 100 150 255
20.2676 -9.2717 0.3716 100 150 255
20.2690 -9.2624 0.3716 100 150 255
20.2705 -9.2530 0.3716 100 150 255
20.2719 -9.2436 0.3716 100 150 255
20.2733 -9.2343 0.3716 100 150 255
20.2748 -9.2249 0.3716 100 150 255
20.2762 -9.2155 0.3716 100 150 255
20.2776 -9.2061 0.3716 100 150 255
20.2791 -9.1968 0.3716 100 150 255
20.2805 -9.1874 0.3716 100 150 255
20.2820 -9.1780 0.3716 100 150 255
20.2834 -9.1687 0.3716 100 150 255
20.2848 -9.1593 0.3716 100 150 255
20.2863 -9.1499 0.3716 100 150 255
20.2877 -9.1406 0.3716 100 150 255
20.2891 -9.1312 0.3716 100 150 255
20.2906 -9.1218 0.3716 100 150 255
20.2920 -9.1124 0.3716 100 150 255
20.2934 -9.1031 0.3716 100 150 255
20.2949 -9.0937 0.3716 100 150 255
20.2963 -9.0843 0.3716 100 150 255
20.2978 -9.0750 0.3716 100 150 255
20.2992 -9.0656 0.3716 100 150 255
20.3006 -9.0562 0.3716 100 150 255
20.3021 -9.0469 0.3716 100 150 255
20.3035 -9.0375 0.3716 100 150 255
20.3049 -9.0281 0.3716 100 150 255
20.3064 -9.0187 0.3716 100 150 255
20.3078 -9.0094 0.3716 100 150 255
20.3093 -9.0000 0.3716 100 150 255
20.3107 -8.9906 0.3716 100 150 255
20.3121 -8.9813 0.3716 100 150 255
20.3136 -8.9719 0.3716 100 150 255
20.3150 -8.9625 0.3716 100 150 255
20.3150 -8.9625 0.3716 100 150 255
20.2902 -8.9587 0.3716 100 150 255
20.2654 -8.9549 0.3716 100 150 255
20.2406 -8.9511 0.3716 100 150 255
20.2158 -8.9473 0.3716 100 150 255
20.1909 -8.9435 0.3716 100 150 255
20.1661 -8.9397 0.3716 100 150 255
20.1413 -8.9359 0.3716 100 150 255
20.1165 -8.9321 0.3716 100 150 255
20.0917 -8.9283 0.3716 100 150 255
20.0669 -8.9245 0.3716 100 150 255
20.0421 -8.9207 0.3716 100 150 255
20.0173 -8.9169 0.3716 100 150 255
19.9924 -8.9131 0.3716 100 150 255
19.9676 -8.9093 0.3716 100 150 255
19.9428 -8.9055 0.3716 100 150 255
19.9180 -8.9017 0.3716 100 150 255
19.8932 -8.8978 0.3716 100 150 255
19.8684 -8.8940 0.3716 100 150 255
19.8436 -8.8902 0.3716 100 150 255
19.8188 -8.8864 0.3716 100 150 255
19.7940 -8.8826 0.3716 100 150 255
19.7691 -8.8788 0.3716 100 150 255
19.7443 -8.8750 0.3716 100 150 255
19.7195 -8.8712 0.3716 100 150 255
19.6947 -8.8674 0.3716 100 150 255
19.6699 -8.8636 0.3716 100 150 255
19.6451 -8.8598 0.3716 100 150 255
19.6203 -8.8560 0.3716 100 150 255
19.5955 -8.8522 0.3716 100 150 255
19.5706 -8.8484 0.3716 100 150 255
19.5458 -8.8446 0.3716 100 150 255
19.5210 -8.8408 0.3716 100 150 255
19.4962 -8.8370 0.3716 100 150 255
19.4714 -8.8332 0.3716 100 150 255
19.4466 -8.8294 0.3716 100 150 255
19.4218 -8.8256 0.3716 100 150 255
19.3970 -8.8218 0.3716 100 150 255
19.3722 -8.8180 0.3716 100 150 255
19.3473 -8.8142 0.3716 100 150 255
19.3225 -8.8103 0.3716 100 150 255
19.2977 -8.8065 0.3716 100 150 255
19.2729 -8.8027 0.3716 100 150 255
19.2481 -8.7989 0.3716 100 150 255
19.2233 -8.7951 0.3716 100 150 255
19.1985 -8.7913 0.3716 100 150 255
19.1737 -8.7875 0.3716 100 150 255
19.1488 -8.7837 0.3716 100 150 255
19.1240 -8.7799 0.3716 100 150 255
19.0992 -8.7761 0.3716 100 150 255
19.0744 -8.7723 0.3716 100 150 255
19.0496 -8.7685 0.3716 100 150 255
19.0248 -8.7647 0.3716 100 150 255
19.0000 -8.7609 0.3716 100 150 255
18.9752 -8.7571 0.3716 100 150 255
18.9504 -8.7533 0.3716 100 150 255
18.9255 -8.7495 0.3716 100 150 255
18.9007 -8.7457 0.3716 100 150 255
18.8759 -8.7419 0.3716 100 150 255
18.8511 -8.7381 0.3716 100 150 255
18.8263 -8.7343 0.3716 100 150 255
18.8015 -8.7305 0.3716 100 150 255
18.7767 -8.7267 0.3716 100 150 255
18.7519 -8.7228 0.3716 100 150 255
18.7271 -8.7190 0.3716 100 150 255
18.7022 -8.7152 0.3716 100 150 255
18.6774 -8.7114 0.3716 100 150 255
18.6526 -8.7076 0.3716 100 150 255
18.6278 -8.7038 0.3716 100 150 255
18.6030 -8.7000 0.3716 100 150 255
18.5782 -8.6962 0.3716 100 150 255
18.5534 -8.6924 0.3716 100 150 255
18.5286 -8.6886 0.3716 100 150 255
18.5037 -8.6848 0.3716 100 150 255
18.4789 -8.6810 0.3716 100 150 255
18.4541 -8.6772 0.3716 100 150 255
18.4293 -8.6734 0.3716 100 150 255
18.4045 -8.6696 0.3716 100 150 255
18.3797 -8.6658 0.3716 100 150 255
18.3549 -8.6620 0.3716 100 150 255
18.3301 -8.6582 0.3716 100 150 255
18.3053 -8.6544 0.3716 100 150 255
18.2804 -8.6506 0.3716 100 150 255
18.2556 -8.6468 0.3716 100 150 255
18.2308 -8.6430 0.3716 100 150 255
18.2060 -8.6392 0.3716 100 150 255
18.1812 -8.6353 0.3716 100 150 255
18.1564 -8.6315 0.3716 100 150 255
18.1316 -8.6277 0.3716 100 150 255
18.1068 -8.6239 0.3716 100 150 255
18.0819 -8.6201 0.3716 100 150 255
18.0571 -8.6163 0.3716 100 150 255
18.0323 -8.6125 0.3716 100 150 255
18.0075 -8.6087 0.3716 100 150 255
17.9827 -8.6049 0.3716 100 150 255
17.9579 -8.6011 0.3716 100 150 255
17.9331 -8.5973 0.3716 100 150 255
17.9083 -8.5935 0.3716 100 150 255
17.8835 -8.5897 0.3716 100 150 255
17.8586 -8.5859 0.3716 100 150 255
17.8338 -8.5821 0.3716 100 150 255
17.8090 -8.5783 0.3716 100 150 255
17.7842 -8.5745 0.3716 100 150 255
17.7594 -8.5707 0.3716 100 150 255
17.7346 -8.5669 0.3716 100 150 255
17.7098 -8.5631 0.3716 100 150 255
17.6850 -8.5593 0.3716 100 150 255
17.6602 -8.5555 0.3716 100 150 255
17.6353 -8.5517 0.3716 100 150 255
17.6105 -8.5479 0.3716 100 150 255
17.5857 -8.5440 0.3716 100 150 255
17.5609 -8.5402 0.3716 100 150 255
17.5361 -8.5364 0.3716 100 150 255
17.5113 -8.5326 0.3716 100 150 255
17.4865 -8.5288 0.3716 100 150 255
17.4617 -8.5250 0.3716 100 150 255
17.4368 -8.5212 0.3716 100 150 255
17.4120 -8.5174 0.3716 100 150 255
17.3872 -8.5136 0.3716 100 150 255
17.3624 -8.5098 0.3716 100 150 255
17.3376 -8.5060 0.3716 100 150 255
17.3128 -8.5022 0.3716 100 150 255
17.2880 -8.4984 0.3716 100 150 255
17.2632 -8.4946 0.3716 100 150 255
17.2384 -8.4908 0.3716 100 150 255
17.2135 -8.4870 0.3716 100 150 255
17.1887 -8.4832 0.3716 100 150 255
17.1639 -8.4794 0.3716 100 150 255
17.1391 -8.4756 0.3716 100 150 255
17.1143 -8.4718 0.3716 100 150 255
17.0895 -8.4680 0.3716 100 150 255
17.0647 -8.4642 0.3716 100 150 255
17.0399 -8.4604 0.3716 100 150 255
17.0150 -8.4565 0.3716 100 150 255
16.9902 -8.4527 0.3716 100 150 255
16.9654 -8.4489 0.3716 100 150 255
16.9406 -8.4451 0.3716 100 150 255
16.9158 -8.4413 0.3716 100 150 255
16.8910 -8.4375 0.3716 100 150 255
16.8662 -8.4337 0.3716 100 150 255
16.8414 -8.4299 0.3716 100 150 255
16.8166 -8.4261 0.3716 100 150 255
16.7917 -8.4223 0.3716 100 150 255
16.7669 -8.4185 0.3716 100 150 255
16.7421 -8.4147 0.3716 100 150 255
16.7173 -8.4109 0.3716 100 150 255
16.6925 -8.4071 0.3716 100 150 255
16.6677 -8.4033 0.3716 100 150 255
16.6429 -8.3995 0.3716 100 150 255
16.6181 -8.3957 0.3716 100 150 255
16.5932 -8.3919 0.3716 100 150 255
16.5684 -8.3881 0.3716 100 150 255
16.5436 -8.3843 0.3716 100 150 255
16.5188 -8.3805 0.3716 100 150 255
16.4940 -8.3767 0.3716 100 150 255
16.4692 -8.3729 0.3716 100 150 255
16.4444 -8.3690 0.3716 100 150 255
16.4196 -8.3652 0.3716 100 150 255
16.3948 -8.3614 0.3716 100 150 255
16.3699 -8.3576 0.3716 100 150 255
16.3451 -8.3538 0.3716 100 150 255
16.3203 -8.3500 0.3716 100 150 255
16.2955 -8.3462 0.3716 100 150 255
16.2707 -8.3424 0.3716 100 150 255
16.2459 -8.3386 0.3716 100 150 255
16.2211 -8.3348 0.3716 100 150 255
16.2211 -8.3348 0.3716 100 150 255
16.2196 -8.3442 0.3716 100 150 255
16.2182 -8.3535 0.3716 100 150 255
16.2168 -8.3629 0.3716 100 150 255
16.2153 -8.3723 0.3716 100 150 255
16.2139 -8.3817 0.3716 100 150 255
16.2125 -8.3910 0.3716 100 150 255
16.2110 -8.4004 0.3716 100 150 255
16.2096 -8.4098 0.3716 100 150 255
16.2081 -8.4191 0.3716 100 150 255
16.2067 -8.4285 0.3716 100 150 255
16.2053 -8.4379 0.3716 100 150 255
16.2038 -8.4473 0.3716 100 150 255
16.2024 -8.4566 0.3716 100 150 255
16.2010 -8.4660 0.3716 100 150 255
16.1995 -8.4754 0.3716 100 150 255
16.1981 -8.4847 0.3716 100 150 255
16.1966 -8.4941 0.3716 100 150 255
16.1952 -8.5035 0.3716 100 150 255
16.1938 -8.5128 0.3716 100 150 255
16.1923 -8.5222 0.3716 100 150 255
16.1909 -8.5316 0.3716 100 150 255
16.1895 -8.5410 0.3716 100 150 255
16.1880 -8.5503 0.3716 100 150 255
16.1866 -8.5597 0.3716 100 150 255
16.1852 -8.5691 0.3716 100 150 255
16.1837 -8.5784 0.3716 100 150 255
16.1823 -8.5878 0.3716 100 150 255
16.1808 -8.5972 0.3716 100 150 255
16.1794 -8.6065 0.3716 100 150 255
16.1780 -8.6159 0.3716 100 150 255
16.1765 -8.6253 0.3716 100 150 255
16.1751 -8.6347 0.3716 100 150 255
16.1737 -8.6440 0.3716 100 150 255
16.1722 -8.6534 0.3716 100 150 255
16.1708 -8.6628 0.3716 100 150 255
16.1694 -8.6721 0.3716 100 150 255
16.1679 -8.6815 0.3716 100 150 255
16.1665 -8.6909 0.3716 100 150 255
16.1650 -8.7003 0.3716 100 150 255
16.1636 -8.7096 0.3716 100 150 255
16.1622 -8.7190 0.3716 100 150 255
16.1607 -8.7284 0.3716 100 150 255
16.1593 -8.7377 0.3716 100 150 255
16.1579 -8.7471 0.3716 100 150 255
16.1564 -8.7565 0.3716 100 150 255
16.1550 -8.7658 0.3716 100 150 255
16.1535 -8.7752 0.3716 100 150 255
16.1521 -8.7846 0.3716 100 150 255
16.1507 -8.7940 0.3716 100 150 255
16.1492 -8.8033 0.3716 100 150 255
16.1478 -8.8127 0.3716 100 150 255
16.1464 -8.8221 0.3716 100 150 255
16.1449 -8.8314 0.3716 100 150 255
16.1435 -8.8408 0.3716 100 150 255
16.1421 -8.8502 0.3716 100 150 255
16.1406 -8.8595 0.3716 100 150 255
16.1392 -8.8689 0.3716 100 150 255
16.1377 -8.8783 0.3716 100 150 255
16.1363 -8.8877 0.3716 100 150 255
16.1349 -8.8970 0.3716 100 150 255
16.1334 -8.9064 0.3716 100 150 255
16.1320 -8.9158 0.3716 100 150 255
16.1306 -8.9251 0.3716 100 150 255
16.1291 -8.9345 0.3716 100 150 255
16.1277 -8.9439 0.3716 100 150 255
16.1262 -8.9532 0.3716 100 150 255
16.1248 -8.9626 0.3716 100 150 255
16.1234 -8.9720 0.3716 100 150 255
16.1219 -8.9814 0.3716 100 150 255
16.1205 -8.9907 0.3716 100 150 255
16.1191 -9.0001 0.3716 100 150 255
16.1176 -9.0095 0.3716 100 150 255
16.1162 -9.0188 0.3716 100 150 255
16.1148 -9.0282 0.3716 100 150 255
16.1133 -9.0376 0.3716 100 150 255
16.1119 -9.0470 0.3716 100 150 255
16.1104 -9.0563 0.3716 100 150 255
16.1090 -9.0657 0.3716 100 150 255
16.1076 -9.0751 0.3716 100 150 255
16.1061 -9.0844 0.3716 100 150 255
16.1047 -9.0938 0.3716 100 150 255
16.1033 -9.1032 0.3716 100 150 255
16.1018 -9.1125 0.3716 100 150 255
16.1004 -9.1219 0.3716 100 150 255
16.0990 -9.1313 0.3716 100 150 255
16.0975 -9.1407 0.3716 100 150 255
16.0961 -9.1500 0.3716 100 150 255
16.0946 -9.1594 0.3716 100 150 255
16.0932 -9.1688 0.3716 100 150 255
16.0918 -9.1781 0.3716 100 150 255
16.0903 -9.1875 0.3716 100 150 255
16.0889 -9.1969 0.3716 100 150 255
16.0875 -9.2062 0.3716 100 150 255
16.0860 -9.2156 0.3716 100 150 255
16.0846 -9.2250 0.3716 100 150 255
16.0831 -9.2344 0.3716 100 150 255
16.0817 -9.2437 0.3716 100 150 255
16.0803 -9.2531 0.3716 100 150 255
16.0788 -9.2625 0.3716 100 150 255
16.0774 -9.2718 0.3716 100 150 255
16.0760 -9.2812 0.3716 100 150 255
16.0745 -9.2906 0.3716 100 150 255
16.0731 -9.2999 0.3716 100 150 255
16.0717 -9.3093 0.3716 100 150 255
16.0702 -9.3187 0.3716 100 150 255
16.0688 -9.3281 0.3716 100 150 255
16.0673 -9.3374 0.3716 100 150 255
16.0659 -9.3468 0.3716 100 150 255
16.0645 -9.3562 0.3716 100 150 255
16.0630 -9.3655 0.3716 100 150 255
16.0616 -9.3749 0.3716 100 150 255
16.0602 -9.3843 0.3716 100 150 255
16.0587 -9.3937 0.3716 100 150 255
16.0573 -9.4030 0.3716 100 150 255
16.0558 -9.4124 0.3716 100 150 255
16.0544 -9.4218 0.3716 100 150 255
16.0530 -9.4311 0.3716 100 150 255
16.0515 -9.4405 0.3716 100 150 255
16.0501 -9.4499 0.3716 100 150 255
16.0487 -9.4592 0.3716 100 150 255
16.0472 -9.4686 0.3716 100 150 255
16.0458 -9.4780 0.3716 100 150 255
16.0444 -9.4874 0.3716 100 150 255
16.0429 -9.4967 0.3716 100 150 255
16.0415 -9.5061 0.3716 100 150 255
16.0400 -9.5155 0.3716 100 150 255
16.0386 -9.5248 0.3716 100 150 255
16.0372 -9.5342 0.3716 100 150 255
16.0357 -9.5436 0.3716 100 150 255
16.0343 -9.5529 0.3716 100 150 255
16.0329 -9.5623 0.3716 100 150 255
16.0314 -9.5717 0.3716 100 150 255
16.0300 -9.5811 0.3716 100 150 255
16.0286 -9.5904 0.3716 100 150 255
16.0271 -9.5998 0.3716 100 150 255
16.0257 -9.6092 0.3716 100 150 255
16.0242 -9.6185 0.3716 100 150 255
16.0228 -9.6279 0.3716 100 150 255
16.0214 -9.6373 0.3716 100 150 255
16.0199 -9.6467 0.3716 100 150 255
16.0185 -9.6560 0.3716 100 150 255
16.0171 -9.6654 0.3716 100 150 255
16.0156 -9.6748 0.3716 100 150 255
16.0142 -9.6841 0.3716 100 150 255
16.0127 -9.6935 0.3716 100 150 255
16.0113 -9.7029 0.3716 100 150 255
16.0099 -9.7122 0.3716 100 150 255
16.0084 -9.7216 0.3716 100 150 255
16.0070 -9.7310 0.3716 100 150 255
16.0056 -9.7404 0.3716 100 150 255
16.0041 -9.7497 0.3716 100 150 255
16.0027 -9.7591 0.3716 100 150 255
16.0013 -9.7685 0.3716 100 150 255
15.9998 -9.7778 0.3716 100 150 255
15.9984 -9.7872 0.3716 100 150 255
15.9969 -9.7966 0.3716 100 150 255
15.9955 -9.8059 0.3716 100 150 255
15.9941 -9.8153 0.3716 100 150 255
15.9926 -9.8247 0.3716 100 150 255
15.9912 -9.8341 0.3716 100 150 255
15.9898 -9.8434 0.3716 100 150 255
15.9883 -9.8528 0.3716 100 150 255
15.9869 -9.8622 0.3716 100 150 255
15.9855 -9.8715 0.3716 100 150 255
15.9840 -9.8809 0.3716 100 150 255
15.9840 -9.8809 1.9951 100 150 255
16.0088 -9.8847 1.9951 100 150 255
16.0336 -9.8885 1.9951 100 150 255
16.0584 -9.8923 1.9951 100 150 255
16.0833 -9.8961 1.9951 100 150 255
16.1081 -9.8999 1.9951 100 150 255
16.1329 -9.9037 1.9951 100 150 255
16.1577 -9.9075 1.9951 100 150 255
16.1825 -9.9113 1.9951 100 150 255
16.2073 -9.9151 1.9951 100 150 255
16.2321 -9.9190 1.9951 100 150 255
16.2569 -9.9228 1.9951 100 150 255
16.2818 -9.9266 1.9951 100 150 255
16.3066 -9.9304 1.9951 100 150 255
16.3314 -9.9342 1.9951 100 150 255
16.3562 -9.9380 1.9951 100 150 255
16.3810 -9.9418 1.9951 100 150 255
16.4058 -9.9456 1.9951 100 150 255
16.4306 -9.9494 1.9951 100 150 255
16.4554 -9.9532 1.9951 100 150 255
16.4802 -9.9570 1.9951 100 150 255
16.5051 -9.9608 1.9951 100 150 255
16.5299 -9.9646 1.9951 100 150 255
16.5547 -9.9684 1.9951 100 150 255
16.5795 -9.9722 1.9951 100 150 255
16.6043 -9.9760 1.9951 100 150 255
16.6291 -9.9798 1.9951 100 150 255
16.6539 -9.9836 1.9951 100 150 255
16.6787 -9.9874 1.9951 100 150 255
16.7036 -9.9912 1.9951 100 150 255
16.7284 -9.9950 1.9951 100 150 255
16.7532 -9.9988 1.9951 100 150 255
16.7780 -10.0026 1.9951 100 150 255
16.8028 -10.0064 1.9951 100 150 255
16.8276 -10.0103 1.9951 100 150 255
16.8524 -10.0141 1.9951 100 150 255
16.8772 -10.0179 1.9951 100 150 255
16.9020 -10.0217 1.9951 100 150 255
16.9269 -10.0255 1.9951 100 150 255
16.9517 -10.0293 1.9951 100 150 255
16.9765 -10.0331 1.9951 100 150 255
17.0013 -10.0369 1.9951 100 150 255
17.0261 -10.0407 1.9951 100 150 255
17.0509 -10.0445 1.9951 100 150 255
17.0757 -10.0483 1.9951 100 150 255
17.1005 -10.0521 1.9951 100 150 255
17.1254 -10.0559 1.9951 100 150 255
17.1502 -10.0597 1.9951 100 150 255
17.1750 -10.0635 1.9951 100 150 255
17.1998 -10.0673 1.9951 100 150 255
17.2246 -10.0711 1.9951 100 150 255
17.2494 -10.0749 1.9951 100 150 255
17.2742 -10.0787 1.9951 100 150 255
17.2990 -10.0825 1.9951 100 150 255
17.3238 -10.0863 1.9951 100 150 255
17.3487 -10.0901 1.9951 100 150 255
17.3735 -10.0939 1.9951 100 150 255
17.3983 -10.0978 1.9951 100 150 255
17.4231 -10.1016 1.9951 100 150 255
17.4479 -10.1054 1.9951 100 150 255
17.4727 -10.1092 1.9951 100 150 255
17.4975 -10.1130 1.9951 100 150 255
17.5223 -10.1168 1.9951 100 150 255
17.5471 -10.1206 1.9951 100 150 255
17.5720 -10.1244 1.9951 100 150 255
17.5968 -10.1282 1.9951 100 150 255
17.6216 -10.1320 1.9951 100 150 255
17.6464 -10.1358 1.9951 100 150 255
17.6712 -10.1396 1.9951 100 150 255
17.6960 -10.1434 1.9951 100 150 255
17.7208 -10.1472 1.9951 100 150 255
17.7456 -10.1510 1.9951 100 150 255
17.7705 -10.1548 1.9951 100 150 255
17.7953 -10.1586 1.9951 100 150 255
17.8201 -10.1624 1.9951 100 150 255
17.8449 -10.1662 1.9951 100 150 255
17.8697 -10.1700 1.9951 100 150 255
17.8945 -10.1738 1.9951 100 150 255
17.9193 -10.1776 1.9951 100 150 255
17.9441 -10.1814 1.9951 100 150 255
17.9689 -10.1853 1.9951 100 150 255
17.9938 -10.1891 1.9951 100 150 255
18.0186 -10.1929 1.9951 100 150 255
18.0434 -10.1967 1.9951 100 150 255
18.0682 -10.2005 1.9951 100 150 255
18.0930 -10.2043 1.9951 100 150 255
18.1178 -10.2081 1.9951 100 150 255
18.1426 -10.2119 1.9951 100 150 255
18.1674 -10.2157 1.9951 100 150 255
18.1923 -10.2195 1.9951 100 150 255
18.2171 -10.2233 1.9951 100 150 255
18.2419 -10.2271 1.9951 100 150 255
18.2667 -10.2309 1.9951 100 150 255
18.2915 -10.2347 1.9951 100 150 255
18.3163 -10.2385 1.9951 100 150 255
18.3411 -10.2423 1.9951 100 150 255
18.3659 -10.2461 1.9951 100 150 255
18.3907 -10.2499 1.9951 100 150 255
18.4156 -10.2537 1.9951 100 150 255
18.4404 -10.2575 1.9951 100 150 255
18.4652 -10.2613 1.9951 100 150 255
18.4900 -10.2651 1.9951 100 150 255
18.5148 -10.2689 1.9951 100 150 255
18.5396 -10.2728 1.9951 100 150 255
18.5644 -10.2766 1.9951 100 150 255
18.5892 -10.2804 1.9951 100 150 255
18.6140 -10.2842 1.9951 100 150 255
18.6389 -10.2880 1.9951 100 150 255
18.6637 -10.2918 1.9951 100 150 255
18.6885 -10.2956 1.9951 100 150 255
18.7133 -10.2994 1.9951 100 150 255
18.7381 -10.3032 1.9951 100 150 255
18.7629 -10.3070 1.9951 100 150 255
18.7877 -10.3108 1.9951 100 150 255
18.8125 -10.3146 1.9951 100 150 255
18.8374 -10.3184 1.9951 100 150 255
18.8622 -10.3222 1.9951 100 150 255
18.8870 -10.3260 1.9951 100 150 255
18.9118 -10.3298 1.9951 100 150 255
18.9366 -10.3336 1.9951 100 150 255
18.9614 -10.3374 1.9951 100 150 255
18.9862 -10.3412 1.9951 100 150 255
19.0110 -10.3450 1.9951 100 150 255
19.0358 -10.3488 1.9951 100 150 255
19.0607 -10.3526 1.9951 100 150 255
19.0855 -10.3564 1.9951 100 150 255
19.1103 -10.3603 1.9951 100 150 255
19.1351 -10.3641 1.9951 100 150 255
19.1599 -10.3679 1.9951 100 150 255
19.1847 -10.3717 1.9951 100 150 255
19.2095 -10.3755 1.9951 100 150 255
19.2343 -10.3793 1.9951 100 150 255
19.2592 -10.3831 1.9951 100 150 255
19.2840 -10.3869 1.9951 100 150 255
19.3088 -10.3907 1.9951 100 150 255
19.3336 -10.3945 1.9951 100 150 255
19.3584 -10.3983 1.9951 100 150 255
19.3832 -10.4021 1.9951 100 150 255
19.4080 -10.4059 1.9951 100 150 255
19.4328 -10.4097 1.9951 100 150 255
19.4576 -10.4135 1.9951 100 150 255
19.4825 -10.4173 1.9951 100 150 255
19.5073 -10.4211 1.9951 100 150 255
19.5321 -10.4249 1.9951 100 150 255
19.5569 -10.4287 1.9951 100 150 255
19.5817 -10.4325 1.9951 100 150 255
19.6065 -10.4363 1.9951 100 150 255
19.6313 -10.4401 1.9951 100 150 255
19.6561 -10.4439 1.9951 100 150 255
19.6810 -10.4477 1.9951 100 150 255
19.7058 -10.4516 1.9951 100 150 255
19.7306 -10.4554 1.9951 100 150 255
19.7554 -10.4592 1.9951 100 150 255
19.7802 -10.4630 1.9951 100 150 255
19.8050 -10.4668 1.9951 100 150 255
19.8298 -10.4706 1.9951 100 150 255
19.8546 -10.4744 1.9951 100 150 255
19.8794 -10.4782 1.9951 100 150 255
19.9043 -10.4820 1.9951 100 150 255
19.9291 -10.4858 1.9951 100 150 255
19.9539 -10.4896 1.9951 100 150 255
19.9787 -10.4934 1.9951 100 150 255
20.0035 -10.4972 1.9951 100 150 255
20.0283 -10.5010 1.9951 100 150 255
20.0531 -10.5048 1.9951 100 150 255
20.0779 -10.5086 1.9951 100 150 255
20.0779 -10.5086 1.9951 100 150 255
20.0794 -10.4992 1.9951 100 150 255
20.0808 -10.4899 1.9951 100 150 255
20.0822 -10.4805 1.9951 100 150 255
20.0837 -10.4711 1.9951 100 150 255
20.0851 -10.4618 1.9951 100 150 255
20.0866 -10.4524 1.9951 100 150 255
20.0880 -10.4430 1.9951 100 150 255
20.0894 -10.4337 1.9951 100 150 255
20.0909 -10.4243 1.9951 100 150 255
20.0923 -10.4149 1.9951 100 150 255
20.0937 -10.4055 1.9951 100 150 255
20.0952 -10.3962 1.9951 100 150 255
20.0966 -10.3868 1.9951 100 150 255
20.0981 -10.3774 1.9951 100 150 255
20.0995 -10.3681 1.9951 100 150 255
20.1009 -10.3587 1.9951 100 150 255
20.1024 -10.3493 1.9951 100 150 255
20.1038 -10.3400 1.9951 100 150 255
20.1052 -10.3306 1.9951 100 150 255
20.1067 -10.3212 1.9951 100 150 255
20.1081 -10.3118 1.9951 100 150 255
20.1095 -10.3025 1.9951 100 150 255
20.1110 -10.2931 1.9951 100 150 255
20.1124 -10.2837 1.9951 100 150 255
20.1139 -10.2744 1.9951 100 150 255
20.1153 -10.2650 1.9951 100 150 255
20.1167 -10.2556 1.9951 100 150 255
20.1182 -10.2463 1.9951 100 150 255
20.1196 -10.2369 1.9951 100 150 255
20.1210 -10.2275 1.9951 100 150 255
20.1225 -10.2181 1.9951 100 150 255
20.1239 -10.2088 1.9951 100 150 255
20.1254 -10.1994 1.9951 100 150 255
20.1268 -10.1900 1.9951 100 150 255
20.1282 -10.1807 1.9951 100 150 255
20.1297 -10.1713 1.9951 100 150 255
20.1311 -10.1619 1.9951 100 150 255
20.1325 -10.1525 1.9951 100 150 255
20.1340 -10.1432 1.9951 100 150 255
20.1354 -10.1338 1.9951 100 150 255
20.1368 -10.1244 1.9951 100 150 255
20.1383 -10.1151 1.9951 100 150 255
20.1397 -10.1057 1.9951 100 150 255
20.1412 -10.0963 1.9951 100 150 255
20.1426 -10.0870 1.9951 100 150 255
20.1440 -10.0776 1.9951 100 150 255
20.1455 -10.0682 1.9951 100 150 255
20.1469 -10.0588 1.9951 100 150 255
20.1483 -10.0495 1.9951 100 150 255
20.1498 -10.0401 1.9951 100 150 255
20.1512 -10.0307 1.9951 100 150 255
20.1526 -10.0214 1.9951 100 150 255
20.1541 -10.0120 1.9951 100 150 255
20.1555 -10.0026 1.9951 100 150 255
20.1570 -9.9933 1.9951 100 150 255
20.1584 -9.9839 1.9951 100 150 255
20.1598 -9.9745 1.9951 100 150 255
20.1613 -9.9651 1.9951 100 150 255
20.1627 -9.9558 1.9951 100 150 255
20.1641 -9.9464 1.9951 100 150 255
20.1656 -9.9370 1.9951 100 150 255
20.1670 -9.9277 1.9951 100 150 255
20.1685 -9.9183 1.9951 100 150 255
20.1699 -9.9089 1.9951 100 150 255
20.1713 -9.8995 1.9951 100 150 255
20.1728 -9.8902 1.9951 100 150 255
20.1742 -9.8808 1.9951 100 150 255
20.1756 -9.8714 1.9951 100 150 255
20.1771 -9.8621 1.9951 100 150 255
20.1785 -9.8527 1.9951 100 150 255
20.1799 -9.8433 1.9951 100 150 255
20.1814 -9.8340 1.9951 100 150 255
20.1828 -9.8246 1.9951 100 150 255
20.1843 -9.8152 1.9951 100 150 255
20.1857 -9.8058 1.9951 100 150 255
20.1871 -9.7965 1.9951 100 150 255
20.1886 -9.7871 1.9951 100 150 255
20.1900 -9.7777 1.9951 100 150 255
20.1914 -9.7684 1.9951 100 150 255
20.1929 -9.7590 1.9951 100 150 255
20.1943 -9.7496 1.9951 100 150 255
20.1957 -9.7403 1.9951 100 150 255
20.1972 -9.7309 1.9951 100 150 255
20.1986 -9.7215 1.9951 100 150 255
20.2001 -9.7121 1.9951 100 150 255
20.2015 -9.7028 1.9951 100 150 255
20.2029 -9.6934 1.9951 100 150 255
20.2044 -9.6840 1.9951 100 150 255
20.2058 -9.6747 1.9951 100 150 255
20.2072 -9.6653 1.9951 100 150 255
20.2087 -9.6559 1.9951 100 150 255
20.2101 -9.6466 1.9951 100 150 255
20.2116 -9.6372 1.9951 100 150 255
20.2130 -9.6278 1.9951 100 150 255
20.2144 -9.6184 1.9951 100 150 255
20.2159 -9.6091 1.9951 100 150 255
20.2173 -9.5997 1.9951 100 150 255
20.2187 -9.5903 1.9951 100 150 255
20.2202 -9.5810 1.9951 100 150 255
20.2216 -9.5716 1.9951 100 150 255
20.2230 -9.5622 1.9951 100 150 255
20.2245 -9.5528 1.9951 100 150 255
20.2259 -9.5435 1.9951 100 150 255
20.2274 -9.5341 1.9951 100 150 255
20.2288 -9.5247 1.9951 100 150 255
20.2302 -9.5154 1.9951 100 150 255
20.2317 -9.5060 1.9951 100 150 255
20.2331 -9.4966 1.9951 100 150 255
20.2345 -9.4873 1.9951 100 150 255
20.2360 -9.4779 1.9951 100 150 255
20.2374 -9.4685 1.9951 100 150 255
20.2389 -9.4591 1.9951 100 150 255
20.2403 -9.4498 1.9951 100 150 255
20.2417 -9.4404 1.9951 100 150 255
20.2432 -9.4310 1.9951 100 150 255
20.2446 -9.4217 1.9951 100 150 255
20.2460 -9.4123 1.9951 100 150 255
20.2475 -9.4029 1.9951 100 150 255
20.2489 -9.3936 1.9951 100 150 255
20.2503 -9.3842 1.9951 100 150 255
20.2518 -9.3748 1.9951 100 150 255
20.2532 -9.3654 1.9951 100 150 255
