ply
format ascii 1.0
element vertex 1449
property float x
property float y
property float z
property uchar red
property uchar green
property uchar blue
end_header
33.5350 14.0324 0.2334 255 40 40
33.5367 14.0288 0.2334 255 40 40
33.5383 14.0252 0.2334 255 40 40
33.5400 14.0216 0.2334 255 40 40
33.5417 14.0181 0.2334 255 40 40
33.5433 14.0145 0.2334 255 40 40
33.5450 14.0109 0.2334 255 40 40
33.5467 14.0073 0.2334 255 40 40
33.5483 14.0037 0.2334 255 40 40
33.5500 14.0001 0.2334 255 40 40
33.5517 13.9965 0.2334 255 40 40
33.5533 13.9929 0.2334 255 40 40
33.5550 13.9894 0.2334 255 40 40
33.5566 13.9858 0.2334 255 40 40
33.5583 13.9822 0.2334 255 40 40
33.5600 13.9786 0.2334 255 40 40
33.5616 13.9750 0.2334 255 40 40
33.5633 13.9714 0.2334 255 40 40
33.5649 13.9678 0.2334 255 40 40
33.5666 13.9642 0.2334 255 40 40
33.5683 13.9607 0.2334 255 40 40
33.5699 13.9571 0.2334 255 40 40
33.5716 13.9535 0.2334 255 40 40
33.5733 13.9499 0.2334 255 40 40
33.5733 13.9499 0.2334 255 40 40
33.5773 13.9518 0.2334 255 40 40
33.5813 13.9536 0.2334 255 40 40
33.5853 13.9555 0.2334 255 40 40
33.5893 13.9573 0.2334 255 40 40
33.5933 13.9592 0.2334 255 40 40
33.5973 13.9611 0.2334 255 40 40
33.6014 13.9629 0.2334 255 40 40
33.6054 13.9648 0.2334 255 40 40
33.6094 13.9666 0.2334 255 40 40
33.6134 13.9685 0.2334 255 40 40
33.6174 13.9704 0.2334 255 40 40
33.6214 13.9722 0.2334 255 40 40
33.6254 13.9741 0.2334 255 40 40
33.6295 13.9759 0.2334 255 40 40
33.6335 13.9778 0.2334 255 40 40
33.6375 13.9797 0.2334 255 40 40
33.6415 13.9815 0.2334 255 40 40
33.6455 13.9834 0.2334 255 40 40
33.6495 13.9852 0.2334 255 40 40
33.6535 13.9871 0.2334 255 40 40
33.6576 13.9890 0.2334 255 40 40
33.6616 13.9908 0.2334 255 40 40
33.6656 13.9927 0.2334 255 40 40
33.6696 13.9945 0.2334 255 40 40
33.6736 13.9964 0.2334 255 40 40
33.6776 13.9983 0.2334 255 40 40
33.6816 14.0001 0.2334 255 40 40
33.6856 14.0020 0.2334 255 40 40
33.6897 14.0038 0.2334 255 40 40
33.6937 14.0057 0.2334 255 40 40
33.6977 14.0076 0.2334 255 40 40
33.7017 14.0094 0.2334 255 40 40
33.7057 14.0113 0.2334 255 40 40
33.7097 14.0131 0.2334 255 40 40
33.7137 14.0150 0.2334 255 40 40
33.7178 14.0169 0.2334 255 40 40
33.7218 14.0187 0.2334 255 40 40
33.7258 14.0206 0.2334 255 40 40
33.7298 14.0224 0.2334 255 40 40
33.7338 14.0243 0.2334 255 40 40
33.7378 14.0262 0.2334 255 40 40
33.7418 14.0280 0.2334 255 40 40
33.7459 14.0299 0.2334 255 40 40
33.7499 14.0317 0.2334 255 40 40
33.7539 14.0336 0.2334 255 40 40
33.7579 14.0355 0.2334 255 40 40
33.7619 14.0373 0.2334 255 40 40
33.7659 14.0392 0.2334 255 40 40
33.7699 14.0410 0.2334 255 40 40
33.7740 14.0429 0.2334 255 40 40
33.7780 14.0448 0.2334 255 40 40
33.7820 14.0466 0.2334 255 40 40
33.7860 14.0485 0.2334 255 40 40
33.7900 14.0504 0.2334 255 40 40
33.7940 14.0522 0.2334 255 40 40
33.7980 14.0541 0.2334 255 40 40
33.8020 14.0559 0.2334 255 40 40
33.8061 14.0578 0.2334 255 40 40
33.8101 14.0597 0.2334 255 40 40
33.8141 14.0615 0.2334 255 40 40
33.8181 14.0634 0.2334 255 40 40
33.8221 14.0652 0.2334 255 40 40
33.8261 14.0671 0.2334 255 40 40
33.8301 14.0690 0.2334 255 40 40
33.8342 14.0708 0.2334 255 40 40
33.8382 14.0727 0.2334 255 40 40
33.8422 14.0745 0.2334 255 40 40
33.8462 14.0764 0.2334 255 40 40
33.8502 14.0783 0.2334 255 40 40
33.8542 14.0801 0.2334 255 40 40
33.8582 14.0820 0.2334 255 40 40
33.8623 14.0838 0.2334 255 40 40
33.8663 14.0857 0.2334 255 40 40
33.8703 14.0876 0.2334 255 40 40
33.8743 14.0894 0.2334 255 40 40
33.8783 14.0913 0.2334 255 40 40
33.8823 14.0931 0.2334 255 40 40
33.8863 14.0950 0.2334 255 40 40
33.8904 14.0969 0.2334 255 40 40
33.8944 14.0987 0.2334 255 40 40
33.8984 14.1006 0.2334 255 40 40
33.9024 14.1024 0.2334 255 40 40
33.9064 14.1043 0.2334 255 40 40
33.9104 14.1062 0.2334 255 40 40
33.9144 14.1080 0.2334 255 40 40
33.9184 14.1099 0.2334 255 40 40
33.9225 14.1117 0.2334 255 40 40
33.9265 14.1136 0.2334 255 40 40
33.9305 14.1155 0.2334 255 40 40
33.9345 14.1173 0.2334 255 40 40
33.9385 14.1192 0.2334 255 40 40
33.9425 14.1210 0.2334 255 40 40
33.9465 14.1229 0.2334 255 40 40
33.9506 14.1248 0.2334 255 40 40
33.9546 14.1266 0.2334 255 40 40
33.9586 14.1285 0.2334 255 40 40
33.9626 14.1303 0.2334 255 40 40
33.9666 14.1322 0.2334 255 40 40
33.9706 14.1341 0.2334 255 40 40
33.9746 14.1359 0.2334 255 40 40
33.9787 14.1378 0.2334 255 40 40
33.9827 14.1396 0.2334 255 40 40
33.9867 14.1415 0.2334 255 40 40
33.9907 14.1434 0.2334 255 40 40
33.9947 14.1452 0.2334 255 40 40
33.9987 14.1471 0.2334 255 40 40
34.0027 14.1489 0.2334 255 40 40
34.0068 14.1508 0.2334 255 40 40
34.0108 14.1527 0.2334 255 40 40
34.0148 14.1545 0.2334 255 40 40
34.0188 14.1564 0.2334 255 40 40
34.0228 14.1582 0.2334 255 40 40
34.0268 14.1601 0.2334 255 40 40
34.0308 14.1620 0.2334 255 40 40
34.0348 14.1638 0.2334 255 40 40
34.0389 14.1657 0.2334 255 40 40
34.0429 14.1675 0.2334 255 40 40
34.0469 14.1694 0.2334 255 40 40
34.0509 14.1713 0.2334 255 40 40
34.0549 14.1731 0.2334 255 40 40
34.0589 14.1750 0.2334 255 40 40
34.0629 14.1768 0.2334 255 40 40
34.0670 14.1787 0.2334 255 40 40
34.0710 14.1806 0.2334 255 40 40
34.0750 14.1824 0.2334 255 40 40
34.0790 14.1843 0.2334 255 40 40
34.0830 14.1861 0.2334 255 40 40
34.0870 14.1880 0.2334 255 40 40
34.0910 14.1899 0.2334 255 40 40
34.0951 14.1917 0.2334 255 40 40
34.0991 14.1936 0.2334 255 40 40
34.1031 14.1954 0.2334 255 40 40
34.1071 14.1973 0.2334 255 40 40
34.1111 14.1992 0.2334 255 40 40
34.1151 14.2010 0.2334 255 40 40
34.1191 14.2029 0.2334 255 40 40
34.1232 14.2048 0.2334 255 40 40
34.1272 14.2066 0.2334 255 40 40
34.1312 14.2085 0.2334 255 40 40
34.1352 14.2103 0.2334 255 40 40
34.1392 14.2122 0.2334 255 40 40
34.1432 14.2141 0.2334 255 40 40
34.1472 14.2159 0.2334 255 40 40
34.1512 14.2178 0.2334 255 40 40
34.1553 14.2196 0.2334 255 40 40
34.1593 14.2215 0.2334 255 40 40
34.1633 14.2234 0.2334 255 40 40
34.1673 14.2252 0.2334 255 40 40
34.1713 14.2271 0.2334 255 40 40
34.1753 14.2289 0.2334 255 40 40
34.1793 14.2308 0.2334 255 40 40
34.1834 14.2327 0.2334 255 40 40
34.1874 14.2345 0.2334 255 40 40
34.1914 14.2364 0.2334 255 40 40
34.1954 14.2382 0.2334 255 40 40
34.1994 14.2401 0.2334 255 40 40
34.2034 14.2420 0.2334 255 40 40
34.2074 14.2438 0.2334 255 40 40
34.2115 14.2457 0.2334 255 40 40
34.2155 14.2475 0.2334 255 40 40
34.2195 14.2494 0.2334 255 40 40
34.2235 14.2513 0.2334 255 40 40
34.2275 14.2531 0.2334 255 40 40
34.2315 14.2550 0.2334 255 40 40
34.2355 14.2568 0.2334 255 40 40
34.2355 14.2568 0.2334 255 40 40
34.2339 14.2604 0.2334 255 40 40
34.2322 14.2640 0.2334 255 40 40
34.2306 14.2676 0.2334 255 40 40
34.2289 14.2712 0.2334 255 40 40
34.2272 14.2748 0.2334 255 40 40
34.2256 14.2784 0.2334 255 40 40
34.2239 14.2819 0.2334 255 40 40
34.2222 14.2855 0.2334 255 40 40
34.2206 14.2891 0.2334 255 40 40
34.2189 14.2927 0.2334 255 40 40
34.2173 14.2963 0.2334 255 40 40
34.2156 14.2999 0.2334 255 40 40
34.2139 14.3035 0.2334 255 40 40
34.2123 14.3071 0.2334 255 40 40
34.2106 14.3106 0.2334 255 40 40
34.2089 14.3142 0.2334 255 40 40
34.2073 14.3178 0.2334 255 40 40
34.2056 14.3214 0.2334 255 40 40
34.2040 14.3250 0.2334 255 40 40
34.2023 14.3286 0.2334 255 40 40
34.2006 14.3322 0.2334 255 40 40
34.1990 14.3358 0.2334 255 40 40
34.1973 14.3393 0.2334 255 40 40
34.1956 14.3429 0.2334 255 40 40
34.1940 14.3465 0.2334 255 40 40
34.1923 14.3501 0.2334 255 40 40
34.1907 14.3537 0.2334 255 40 40
34.1890 14.3573 0.2334 255 40 40
34.1873 14.3609 0.2334 255 40 40
34.1857 14.3644 0.2334 255 40 40
34.1840 14.3680 0.2334 255 40 40
34.1823 14.3716 0.2334 255 40 40
34.1807 14.3752 0.2334 255 40 40
34.1790 14.3788 0.2334 255 40 40
34.1774 14.3824 0.2334 255 40 40
34.1757 14.3860 0.2334 255 40 40
34.1740 14.3896 0.2334 255 40 40
34.1724 14.3931 0.2334 255 40 40
34.1707 14.3967 0.2334 255 40 40
34.1690 14.4003 0.2334 255 40 40
34.1674 14.4039 0.2334 255 40 40
34.1657 14.4075 0.2334 255 40 40
34.1641 14.4111 0.2334 255 40 40
34.1624 14.4147 0.2334 255 40 40
34.1607 14.4183 0.2334 255 40 40
34.1591 14.4218 0.2334 255 40 40
34.1574 14.4254 0.2334 255 40 40
34.1557 14.4290 0.2334 255 40 40
34.1541 14.4326 0.2334 255 40 40
34.1524 14.4362 0.2334 255 40 40
34.1508 14.4398 0.2334 255 40 40
34.1491 14.4434 0.2334 255 40 40
34.1474 14.4470 0.2334 255 40 40
34.1458 14.4505 0.2334 255 40 40
34.1441 14.4541 0.2334 255 40 40
34.1424 14.4577 0.2334 255 40 40
34.1408 14.4613 0.2334 255 40 40
34.1391 14.4649 0.2334 255 40 40
34.1375 14.4685 0.2334 255 40 40
34.1358 14.4721 0.2334 255 40 40
34.1341 14.4756 0.2334 255 40 40
34.1325 14.4792 0.2334 255 40 40
34.1308 14.4828 0.2334 255 40 40
34.1291 14.4864 0.2334 255 40 40
34.1275 14.4900 0.2334 255 40 40
34.1258 14.4936 0.2334 255 40 40
34.1242 14.4972 0.2334 255 40 40
34.1225 14.5008 0.2334 255 40 40
34.1208 14.5043 0.2334 255 40 40
34.1192 14.5079 0.2334 255 40 40
34.1175 14.5115 0.2334 255 40 40
34.1158 14.5151 0.2334 255 40 40
34.1142 14.5187 0.2334 255 40 40
34.1125 14.5223 0.2334 255 40 40
34.1109 14.5259 0.2334 255 40 40
34.1092 14.5295 0.2334 255 40 40
34.1075 14.5330 0.2334 255 40 40
34.1059 14.5366 0.2334 255 40 40
34.1042 14.5402 0.2334 255 40 40
34.1025 14.5438 0.2334 255 40 40
34.1009 14.5474 0.2334 255 40 40
34.0992 14.5510 0.2334 255 40 40
34.0976 14.5546 0.2334 255 40 40
34.0959 14.5581 0.2334 255 40 40
34.0942 14.5617 0.2334 255 40 40
34.0926 14.5653 0.2334 255 40 40
34.0909 14.5689 0.2334 255 40 40
34.0892 14.5725 0.2334 255 40 40
34.0876 14.5761 0.2334 255 40 40
34.0859 14.5797 0.2334 255 40 40
34.0843 14.5833 0.2334 255 40 40
34.0826 14.5868 0.2334 255 40 40
34.0809 14.5904 0.2334 255 40 40
34.0793 14.5940 0.2334 255 40 40
34.0776 14.5976 0.2334 255 40 40
34.0759 14.6012 0.2334 255 40 40
34.0743 14.6048 0.2334 255 40 40
34.0726 14.6084 0.2334 255 40 40
34.0710 14.6120 0.2334 255 40 40
34.0693 14.6155 0.2334 255 40 40
34.0676 14.6191 0.2334 255 40 40
34.0660 14.6227 0.2334 255 40 40
34.0643 14.6263 0.2334 255 40 40
34.0626 14.6299 0.2334 255 40 40
34.0610 14.6335 0.2334 255 40 40
34.0593 14.6371 0.2334 255 40 40
34.0577 14.6407 0.2334 255 40 40
34.0560 14.6442 0.2334 255 40 40
34.0543 14.6478 0.2334 255 40 40
34.0527 14.6514 0.2334 255 40 40
34.0510 14.6550 0.2334 255 40 40
34.0493 14.6586 0.2334 255 40 40
34.0477 14.6622 0.2334 255 40 40
34.0460 14.6658 0.2334 255 40 40
34.0444 14.6693 0.2334 255 40 40
34.0427 14.6729 0.2334 255 40 40
34.0410 14.6765 0.2334 255 40 40
34.0394 14.6801 0.2334 255 40 40
34.0377 14.6837 0.2334 255 40 40
34.0360 14.6873 0.2334 255 40 40
34.0344 14.6909 0.2334 255 40 40
34.0327 14.6945 0.2334 255 40 40
34.0311 14.6980 0.2334 255 40 40
34.0294 14.7016 0.2334 255 40 40
34.0277 14.7052 0.2334 255 40 40
34.0261 14.7088 0.2334 255 40 40
34.0244 14.7124 0.2334 255 40 40
34.0227 14.7160 0.2334 255 40 40
34.0211 14.7196 0.2334 255 40 40
34.0194 14.7232 0.2334 255 40 40
34.0178 14.7267 0.2334 255 40 40
34.0161 14.7303 0.2334 255 40 40
34.0144 14.7339 0.2334 255 40 40
34.0128 14.7375 0.2334 255 40 40
34.0111 14.7411 0.2334 255 40 40
34.0094 14.7447 0.2334 255 40 40
34.0078 14.7483 0.2334 255 40 40
34.0061 14.7519 0.2334 255 40 40
34.0045 14.7554 0.2334 255 40 40
34.0028 14.7590 0.2334 255 40 40
34.0011 14.7626 0.2334 255 40 40
33.9995 14.7662 0.2334 255 40 40
33.9978 14.7698 0.2334 255 40 40
33.9961 14.7734 0.2334 255 40 40
33.9945 14.7770 0.2334 255 40 40
33.9928 14.7805 0.2334 255 40 40
33.9912 14.7841 0.2334 255 40 40
33.9895 14.7877 0.2334 255 40 40
33.9878 14.7913 0.2334 255 40 40
33.9862 14.7949 0.2334 255 40 40
33.9845 14.7985 0.2334 255 40 40
33.9828 14.8021 0.2334 255 40 40
33.9812 14.8057 0.2334 255 40 40
33.9795 14.8092 0.2334 255 40 40
33.9779 14.8128 0.2334 255 40 40
33.9762 14.8164 0.2334 255 40 40
33.9745 14.8200 0.2334 255 40 40
33.9729 14.8236 0.2334 255 40 40
33.9712 14.8272 0.2334 255 40 40
33.9695 14.8308 0.2334 255 40 40
33.9679 14.8344 0.2334 255 40 40
33.9662 14.8379 0.2334 255 40 40
33.9646 14.8415 0.2334 255 40 40
33.9629 14.8451 0.2334 255 40 40
33.9612 14.8487 0.2334 255 40 40
33.9612 14.8487 0.2334 255 40 40
33.9572 14.8468 0.2334 255 40 40
33.9532 14.8450 0.2334 255 40 40
33.9492 14.8431 0.2334 255 40 40
33.9452 14.8413 0.2334 255 40 40
33.9412 14.8394 0.2334 255 40 40
33.9371 14.8375 0.2334 255 40 40
33.9331 14.8357 0.2334 255 40 40
33.9291 14.8338 0.2334 255 40 40
33.9251 14.8320 0.2334 255 40 40
33.9211 14.8301 0.2334 255 40 40
33.9171 14.8282 0.2334 255 40 40
33.9131 14.8264 0.2334 255 40 40
33.9090 14.8245 0.2334 255 40 40
33.9050 14.8227 0.2334 255 40 40
33.9010 14.8208 0.2334 255 40 40
33.8970 14.8189 0.2334 255 40 40
33.8930 14.8171 0.2334 255 40 40
33.8890 14.8152 0.2334 255 40 40
33.8850 14.8134 0.2334 255 40 40
33.8810 14.8115 0.2334 255 40 40
33.8769 14.8096 0.2334 255 40 40
33.8729 14.8078 0.2334 255 40 40
33.8689 14.8059 0.2334 255 40 40
33.8649 14.8041 0.2334 255 40 40
33.8609 14.8022 0.2334 255 40 40
33.8569 14.8003 0.2334 255 40 40
33.8529 14.7985 0.2334 255 40 40
33.8488 14.7966 0.2334 255 40 40
33.8448 14.7948 0.2334 255 40 40
33.8408 14.7929 0.2334 255 40 40
33.8368 14.7910 0.2334 255 40 40
33.8328 14.7892 0.2334 255 40 40
33.8288 14.7873 0.2334 255 40 40
33.8248 14.7855 0.2334 255 40 40
33.8207 14.7836 0.2334 255 40 40
33.8167 14.7817 0.2334 255 40 40
33.8127 14.7799 0.2334 255 40 40
33.8087 14.7780 0.2334 255 40 40
33.8047 14.7762 0.2334 255 40 40
33.8007 14.7743 0.2334 255 40 40
33.7967 14.7724 0.2334 255 40 40
33.7927 14.7706 0.2334 255 40 40
33.7886 14.7687 0.2334 255 40 40
33.7846 14.7668 0.2334 255 40 40
33.7806 14.7650 0.2334 255 40 40
33.7766 14.7631 0.2334 255 40 40
33.7726 14.7613 0.2334 255 40 40
33.7686 14.7594 0.2334 255 40 40
33.7646 14.7575 0.2334 255 40 40
33.7605 14.7557 0.2334 255 40 40
33.7565 14.7538 0.2334 255 40 40
33.7525 14.7520 0.2334 255 40 40
33.7485 14.7501 0.2334 255 40 40
33.7445 14.7482 0.2334 255 40 40
33.7405 14.7464 0.2334 255 40 40
33.7365 14.7445 0.2334 255 40 40
33.7324 14.7427 0.2334 255 40 40
33.7284 14.7408 0.2334 255 40 40
33.7244 14.7389 0.2334 255 40 40
33.7204 14.7371 0.2334 255 40 40
33.7164 14.7352 0.2334 255 40 40
33.7124 14.7334 0.2334 255 40 40
33.7084 14.7315 0.2334 255 40 40
33.7043 14.7296 0.2334 255 40 40
33.7003 14.7278 0.2334 255 40 40
33.6963 14.7259 0.2334 255 40 40
33.6923 14.7241 0.2334 255 40 40
33.6883 14.7222 0.2334 255 40 40
33.6843 14.7203 0.2334 255 40 40
33.6803 14.7185 0.2334 255 40 40
33.6763 14.7166 0.2334 255 40 40
33.6722 14.7148 0.2334 255 40 40
33.6682 14.7129 0.2334 255 40 40
33.6642 14.7110 0.2334 255 40 40
33.6602 14.7092 0.2334 255 40 40
33.6562 14.7073 0.2334 255 40 40
33.6522 14.7055 0.2334 255 40 40
33.6482 14.7036 0.2334 255 40 40
33.6441 14.7017 0.2334 255 40 40
33.6401 14.6999 0.2334 255 40 40
33.6361 14.6980 0.2334 255 40 40
33.6321 14.6962 0.2334 255 40 40
33.6281 14.6943 0.2334 255 40 40
33.6241 14.6924 0.2334 255 40 40
33.6201 14.6906 0.2334 255 40 40
33.6160 14.6887 0.2334 255 40 40
33.6120 14.6869 0.2334 255 40 40
33.6080 14.6850 0.2334 255 40 40
33.6040 14.6831 0.2334 255 40 40
33.6000 14.6813 0.2334 255 40 40
33.5960 14.6794 0.2334 255 40 40
33.5920 14.6776 0.2334 255 40 40
33.5879 14.6757 0.2334 255 40 40
33.5839 14.6738 0.2334 255 40 40
33.5799 14.6720 0.2334 255 40 40
33.5759 14.6701 0.2334 255 40 40
33.5719 14.6683 0.2334 255 40 40
33.5679 14.6664 0.2334 255 40 40
33.5639 14.6645 0.2334 255 40 40
33.5599 14.6627 0.2334 255 40 40
33.5558 14.6608 0.2334 255 40 40
33.5518 14.6590 0.2334 255 40 40
33.5478 14.6571 0.2334 255 40 40
33.5438 14.6552 0.2334 255 40 40
33.5398 14.6534 0.2334 255 40 40
33.5358 14.6515 0.2334 255 40 40
33.5318 14.6497 0.2334 255 40 40
33.5277 14.6478 0.2334 255 40 40
33.5237 14.6459 0.2334 255 40 40
33.5197 14.6441 0.2334 255 40 40
33.5157 14.6422 0.2334 255 40 40
33.5117 14.6404 0.2334 255 40 40
33.5077 14.6385 0.2334 255 40 40
33.5037 14.6366 0.2334 255 40 40
33.4996 14.6348 0.2334 255 40 40
33.4956 14.6329 0.2334 255 40 40
33.4916 14.6311 0.2334 255 40 40
33.4876 14.6292 0.2334 255 40 40
33.4836 14.6273 0.2334 255 40 40
33.4796 14.6255 0.2334 255 40 40
33.4756 14.6236 0.2334 255 40 40
33.4715 14.6217 0.2334 255 40 40
33.4675 14.6199 0.2334 255 40 40
33.4635 14.6180 0.2334 255 40 40
33.4595 14.6162 0.2334 255 40 40
33.4555 14.6143 0.2334 255 40 40
33.4515 14.6124 0.2334 255 40 40
33.4475 14.6106 0.2334 255 40 40
33.4435 14.6087 0.2334 255 40 40
33.4394 14.6069 0.2334 255 40 40
33.4354 14.6050 0.2334 255 40 40
33.4314 14.6031 0.2334 255 40 40
33.4274 14.6013 0.2334 255 40 40
33.4234 14.5994 0.2334 255 40 40
33.4194 14.5976 0.2334 255 40 40
33.4154 14.5957 0.2334 255 40 40
33.4113 14.5938 0.2334 255 40 40
33.4073 14.5920 0.2334 255 40 40
33.4033 14.5901 0.2334 255 40 40
33.3993 14.5883 0.2334 255 40 40
33.3953 14.5864 0.2334 255 40 40
33.3913 14.5845 0.2334 255 40 40
33.3873 14.5827 0.2334 255 40 40
33.3832 14.5808 0.2334 255 40 40
33.3792 14.5790 0.2334 255 40 40
33.3752 14.5771 0.2334 255 40 40
33.3712 14.5752 0.2334 255 40 40
33.3672 14.5734 0.2334 255 40 40
33.3632 14.5715 0.2334 255 40 40
33.3592 14.5697 0.2334 255 40 40
33.3551 14.5678 0.2334 255 40 40
33.3511 14.5659 0.2334 255 40 40
33.3471 14.5641 0.2334 255 40 40
33.3431 14.5622 0.2334 255 40 40
33.3391 14.5604 0.2334 255 40 40
33.3351 14.5585 0.2334 255 40 40
33.3311 14.5566 0.2334 255 40 40
33.3270 14.5548 0.2334 255 40 40
33.3230 14.5529 0.2334 255 40 40
33.3190 14.5511 0.2334 255 40 40
33.3150 14.5492 0.2334 255 40 40
33.3110 14.5473 0.2334 255 40 40
33.3070 14.5455 0.2334 255 40 40
33.3030 14.5436 0.2334 255 40 40
33.2990 14.5418 0.2334 255 40 40
33.2990 14.5418 1.9954 255 40 40
33.3006 14.5382 1.9954 255 40 40
33.3023 14.5346 1.9954 255 40 40
33.3039 14.5310 1.9954 255 40 40
33.3056 14.5274 1.9954 255 40 40
33.3073 14.5238 1.9954 255 40 40
33.3089 14.5202 1.9954 255 40 40
33.3106 14.5167 1.9954 255 40 40
33.3123 14.5131 1.9954 255 40 40
33.3139 14.5095 1.9954 255 40 40
33.3156 14.5059 1.9954 255 40 40
33.3172 14.5023 1.9954 255 40 40
33.3189 14.4987 1.9954 255 40 40
33.3206 14.4951 1.9954 255 40 40
33.3222 14.4915 1.9954 255 40 40
33.3239 14.4880 1.9954 255 40 40
33.3256 14.4844 1.9954 255 40 40
33.3272 14.4808 1.9954 255 40 40
33.3289 14.4772 1.9954 255 40 40
33.3305 14.4736 1.9954 255 40 40
33.3322 14.4700 1.9954 255 40 40
33.3339 14.4664 1.9954 255 40 40
33.3355 14.4628 1.9954 255 40 40
33.3372 14.4593 1.9954 255 40 40
33.3389 14.4557 1.9954 255 40 40
33.3405 14.4521 1.9954 255 40 40
33.3422 14.4485 1.9954 255 40 40
33.3438 14.4449 1.9954 255 40 40
33.3455 14.4413 1.9954 255 40 40
33.3472 14.4377 1.9954 255 40 40
33.3488 14.4341 1.9954 255 40 40
33.3505 14.4306 1.9954 255 40 40
33.3522 14.4270 1.9954 255 40 40
33.3538 14.4234 1.9954 255 40 40
33.3555 14.4198 1.9954 255 40 40
33.3571 14.4162 1.9954 255 40 40
33.3588 14.4126 1.9954 255 40 40
33.3605 14.4090 1.9954 255 40 40
33.3621 14.4055 1.9954 255 40 40
33.3638 14.4019 1.9954 255 40 40
33.3655 14.3983 1.9954 255 40 40
33.3671 14.3947 1.9954 255 40 40
33.3688 14.3911 1.9954 255 40 40
33.3704 14.3875 1.9954 255 40 40
33.3721 14.3839 1.9954 255 40 40
33.3738 14.3803 1.9954 255 40 40
33.3754 14.3768 1.9954 255 40 40
33.3771 14.3732 1.9954 255 40 40
33.3788 14.3696 1.9954 255 40 40
33.3804 14.3660 1.9954 255 40 40
33.3821 14.3624 1.9954 255 40 40
33.3837 14.3588 1.9954 255 40 40
33.3854 14.3552 1.9954 255 40 40
33.3871 14.3516 1.9954 255 40 40
33.3887 14.3481 1.9954 255 40 40
33.3904 14.3445 1.9954 255 40 40
33.3921 14.3409 1.9954 255 40 40
33.3937 14.3373 1.9954 255 40 40
33.3954 14.3337 1.9954 255 40 40
33.3970 14.3301 1.9954 255 40 40
33.3987 14.3265 1.9954 255 40 40
33.4004 14.3229 1.9954 255 40 40
33.4020 14.3194 1.9954 255 40 40
33.4037 14.3158 1.9954 255 40 40
33.4054 14.3122 1.9954 255 40 40
33.4070 14.3086 1.9954 255 40 40
33.4087 14.3050 1.9954 255 40 40
33.4103 14.3014 1.9954 255 40 40
33.4120 14.2978 1.9954 255 40 40
33.4137 14.2943 1.9954 255 40 40
33.4153 14.2907 1.9954 255 40 40
33.4170 14.2871 1.9954 255 40 40
33.4187 14.2835 1.9954 255 40 40
33.4203 14.2799 1.9954 255 40 40
33.4220 14.2763 1.9954 255 40 40
33.4236 14.2727 1.9954 255 40 40
33.4253 14.2691 1.9954 255 40 40
33.4270 14.2656 1.9954 255 40 40
33.4286 14.2620 1.9954 255 40 40
33.4303 14.2584 1.9954 255 40 40
33.4319 14.2548 1.9954 255 40 40
33.4336 14.2512 1.9954 255 40 40
33.4353 14.2476 1.9954 255 40 40
33.4369 14.2440 1.9954 255 40 40
33.4386 14.2404 1.9954 255 40 40
33.4403 14.2369 1.9954 255 40 40
33.4419 14.2333 1.9954 255 40 40
33.4436 14.2297 1.9954 255 40 40
33.4453 14.2261 1.9954 255 40 40
33.4469 14.2225 1.9954 255 40 40
33.4486 14.2189 1.9954 255 40 40
33.4502 14.2153 1.9954 255 40 40
33.4519 14.2118 1.9954 255 40 40
33.4536 14.2082 1.9954 255 40 40
33.4552 14.2046 1.9954 255 40 40
33.4569 14.2010 1.9954 255 40 40
33.4585 14.1974 1.9954 255 40 40
33.4602 14.1938 1.9954 255 40 40
33.4619 14.1902 1.9954 255 40 40
33.4635 14.1866 1.9954 255 40 40
33.4652 14.1831 1.9954 255 40 40
33.4669 14.1795 1.9954 255 40 40
33.4685 14.1759 1.9954 255 40 40
33.4702 14.1723 1.9954 255 40 40
33.4719 14.1687 1.9954 255 40 40
33.4735 14.1651 1.9954 255 40 40
33.4752 14.1615 1.9954 255 40 40
33.4768 14.1579 1.9954 255 40 40
33.4785 14.1544 1.9954 255 40 40
33.4802 14.1508 1.9954 255 40 40
33.4818 14.1472 1.9954 255 40 40
33.4835 14.1436 1.9954 255 40 40
33.4851 14.1400 1.9954 255 40 40
33.4868 14.1364 1.9954 255 40 40
33.4885 14.1328 1.9954 255 40 40
33.4901 14.1292 1.9954 255 40 40
33.4918 14.1257 1.9954 255 40 40
33.4935 14.1221 1.9954 255 40 40
33.4951 14.1185 1.9954 255 40 40
33.4968 14.1149 1.9954 255 40 40
33.4985 14.1113 1.9954 255 40 40
33.5001 14.1077 1.9954 255 40 40
33.5018 14.1041 1.9954 255 40 40
33.5034 14.1006 1.9954 255 40 40
33.5051 14.0970 1.9954 255 40 40
33.5068 14.0934 1.9954 255 40 40
33.5084 14.0898 1.9954 255 40 40
33.5101 14.0862 1.9954 255 40 40
33.5117 14.0826 1.9954 255 40 40
33.5134 14.0790 1.9954 255 40 40
33.5151 14.0754 1.9954 255 40 40
33.5167 14.0719 1.9954 255 40 40
33.5184 14.0683 1.9954 255 40 40
33.5201 14.0647 1.9954 255 40 40
33.5217 14.0611 1.9954 255 40 40
33.5234 14.0575 1.9954 255 40 40
33.5251 14.0539 1.9954 255 40 40
33.5267 14.0503 1.9954 255 40 40
33.5284 14.0467 1.9954 255 40 40
33.5300 14.0432 1.9954 255 40 40
33.5317 14.0396 1.9954 255 40 40
33.5334 14.0360 1.9954 255 40 40
33.5350 14.0324 1.9954 255 40 40
33.5367 14.0288 1.9954 255 40 40
33.5383 14.0252 1.9954 255 40 40
33.5400 14.0216 1.9954 255 40 40
33.5417 14.0181 1.9954 255 40 40
33.5433 14.0145 1.9954 255 40 40
33.5450 14.0109 1.9954 255 40 40
33.5467 14.0073 1.9954 255 40 40
33.5483 14.0037 1.9954 255 40 40
33.5500 14.0001 1.9954 255 40 40
33.5517 13.9965 1.9954 255 40 40
33.5533 13.9929 1.9954 255 40 40
33.5550 13.9894 1.9954 255 40 40
33.5566 13.9858 1.9954 255 40 40
33.5583 13.9822 1.9954 255 40 40
33.5600 13.9786 1.9954 255 40 40
33.5616 13.9750 1.9954 255 40 40
33.5633 13.9714 1.9954 255 40 40
33.5649 13.9678 1.9954 255 40 40
33.5666 13.9642 1.9954 255 40 40
33.5683 13.9607 1.9954 255 40 40
33.5699 13.9571 1.9954 255 40 40
33.5716 13.9535 1.9954 255 40 40
33.5733 13.9499 1.9954 255 40 40
33.5733 13.9499 1.9954 255 40 40
33.5773 13.9518 1.9954 255 40 40
33.5813 13.9536 1.9954 255 40 40
33.5853 13.9555 1.9954 255 40 40
33.5893 13.9573 1.9954 255 40 40
33.5933 13.9592 1.9954 255 40 40
33.5973 13.9611 1.9954 255 40 40
33.6014 13.9629 1.9954 255 40 40
33.6054 13.9648 1.9954 255 40 40
33.6094 13.9666 1.9954 255 40 40
33.6134 13.9685 1.9954 255 40 40
33.6174 13.9704 1.9954 255 40 40
33.6214 13.9722 1.9954 255 40 40
33.6254 13.9741 1.9954 255 40 40
33.6295 13.9759 1.9954 255 40 40
33.6335 13.9778 1.9954 255 40 40
33.6375 13.9797 1.9954 255 40 40
33.6415 13.9815 1.9954 255 40 40
33.6455 13.9834 1.9954 255 40 40
33.6495 13.9852 1.9954 255 40 40
33.6535 13.9871 1.9954 255 40 40
33.6576 13.9890 1.9954 255 40 40
33.6616 13.9908 1.9954 255 40 40
33.6656 13.9927 1.9954 255 40 40
33.6696 13.9945 1.9954 255 40 40
33.6736 13.9964 1.9954 255 40 40
33.6776 13.9983 1.9954 255 40 40
33.6816 14.0001 1.9954 255 40 40
33.6856 14.0020 1.9954 255 40 40
33.6897 14.0038 1.9954 255 40 40
33.6937 14.0057 1.9954 255 40 40
33.6977 14.0076 1.9954 255 40 40
33.7017 14.0094 1.9954 255 40 40
33.7057 14.0113 1.9954 255 40 40
33.7097 14.0131 1.9954 255 40 40
33.7137 14.0150 1.9954 255 40 40
33.7178 14.0169 1.9954 255 40 40
33.7218 14.0187 1.9954 255 40 40
33.7258 14.0206 1.9954 255 40 40
33.7298 14.0224 1.9954 255 40 40
33.7338 14.0243 1.9954 255 40 40
33.7378 14.0262 1.9954 255 40 40
33.7418 14.0280 1.9954 255 40 40
33.7459 14.0299 1.9954 255 40 40
33.7499 14.0317 1.9954 255 40 40
33.7539 14.0336 1.9954 255 40 40
33.7579 14.0355 1.9954 255 40 40
33.7619 14.0373 1.9954 255 40 40
33.7659 14.0392 1.9954 255 40 40
33.7699 14.0410 1.9954 255 40 40
33.7740 14.0429 1.9954 255 40 40
33.7780 14.0448 1.9954 255 40 40
33.7820 14.0466 1.9954 255 40 40
33.7860 14.0485 1.9954 255 40 40
33.7900 14.0504 1.9954 255 40 40
33.7940 14.0522 1.9954 255 40 40
33.7980 14.0541 1.9954 255 40 40
33.8020 14.0559 1.9954 255 40 40
33.8061 14.0578 1.9954 255 40 40
33.8101 14.0597 1.9954 255 40 40
33.8141 14.0615 1.9954 255 40 40
33.8181 14.0634 1.9954 255 40 40
33.8221 14.0652 1.9954 255 40 40
33.8261 14.0671 1.9954 255 40 40
33.8301 14.0690 1.9954 255 40 40
33.8342 14.0708 1.9954 255 40 40
33.8382 14.0727 1.9954 255 40 40
33.8422 14.0745 1.9954 255 40 40
33.8462 14.0764 1.9954 255 40 40
33.8502 14.0783 1.9954 255 40 40
33.8542 14.0801 1.9954 255 40 40
33.8582 14.0820 1.9954 255 40 40
33.8623 14.0838 1.9954 255 40 40
33.8663 14.0857 1.9954 255 40 40
33.8703 14.0876 1.9954 255 40 40
33.8743 14.0894 1.9954 255 40 40
33.8783 14.0913 1.9954 255 40 40
33.8823 14.0931 1.9954 255 40 40
33.8863 14.0950 1.9954 255 40 40
33.8904 14.0969 1.9954 255 40 40
33.8944 14.0987 1.9954 255 40 40
33.8984 14.1006 1.9954 255 40 40
33.9024 14.1024 1.9954 255 40 40
33.9064 14.1043 1.9954 255 40 40
33.9104 14.1062 1.9954 255 40 40
33.9144 14.1080 1.9954 255 40 40
33.9184 14.1099 1.9954 255 40 40
33.9225 14.1117 1.9954 255 40 40
33.9265 14.1136 1.9954 255 40 40
33.9305 14.1155 1.9954 255 40 40
33.9345 14.1173 1.9954 255 40 40
33.9385 14.1192 1.9954 255 40 40
33.9425 14.1210 1.9954 255 40 40
33.9465 14.1229 1.9954 255 40 40
33.9506 14.1248 1.9954 255 40 40
33.9546 14.1266 1.9954 255 40 40
33.9586 14.1285 1.9954 255 40 40
33.9626 14.1303 1.9954 255 40 40
33.9666 14.1322 1.9954 255 40 40
33.9706 14.1341 1.9954 255 40 40
33.9746 14.1359 1.9954 255 40 40
33.9787 14.1378 1.9954 255 40 40
33.9827 14.1396 1.9954 255 40 40
33.9867 14.1415 1.9954 255 40 40
33.9907 14.1434 1.9954 255 40 40
33.9947 14.1452 1.9954 255 40 40
33.9987 14.1471 1.9954 255 40 40
34.0027 14.1489 1.9954 255 40 40
34.0068 14.1508 1.9954 255 40 40
34.0108 14.1527 1.9954 255 40 40
34.0148 14.1545 1.9954 255 40 40
34.0188 14.1564 1.9954 255 40 40
34.0228 14.1582 1.9954 255 40 40
34.0268 14.1601 1.9954 255 40 40
34.0308 14.1620 1.9954 255 40 40
34.0348 14.1638 1.9954 255 40 40
34.0389 14.1657 1.9954 255 40 40
34.0429 14.1675 1.9954 255 40 40
34.0469 14.1694 1.9954 255 40 40
34.0509 14.1713 1.9954 255 40 40
34.0549 14.1731 1.9954 255 40 40
34.0589 14.1750 1.9954 255 40 40
34.0629 14.1768 1.9954 255 40 40
34.0670 14.1787 1.9954 255 40 40
34.0710 14.1806 1.9954 255 40 40
34.0750 14.1824 1.9954 255 40 40
34.0790 14.1843 1.9954 255 40 40
34.0830 14.1861 1.9954 255 40 40
34.0870 14.1880 1.9954 255 40 40
34.0910 14.1899 1.9954 255 40 40
34.0951 14.1917 1.9954 255 40 40
34.0991 14.1936 1.9954 255 40 40
34.1031 14.1954 1.9954 255 40 40
34.1071 14.1973 1.9954 255 40 40
34.1111 14.1992 1.9954 255 40 40
34.1151 14.2010 1.9954 255 40 40
34.1191 14.2029 1.9954 255 40 40
34.1232 14.2048 1.9954 255 40 40
34.1272 14.2066 1.9954 255 40 40
34.1312 14.2085 1.9954 255 40 40
34.1352 14.2103 1.9954 255 40 40
34.1392 14.2122 1.9954 255 40 40
34.1432 14.2141 1.9954 255 40 40
34.1472 14.2159 1.9954 255 40 40
34.1512 14.2178 1.9954 255 40 40
34.1553 14.2196 1.9954 255 40 40
34.1593 14.2215 1.9954 255 40 40
34.1633 14.2234 1.9954 255 40 40
34.1673 14.2252 1.9954 255 40 40
34.1713 14.2271 1.9954 255 40 40
34.1753 14.2289 1.9954 255 40 40
34.1793 14.2308 1.9954 255 40 40
34.1834 14.2327 1.9954 255 40 40
34.1874 14.2345 1.9954 255 40 40
34.1914 14.2364 1.9954 255 40 40
34.1954 14.2382 1.9954 255 40 40
34.1994 14.2401 1.9954 255 40 40
34.2034 14.2420 1.9954 255 40 40
34.2074 14.2438 1.9954 255 40 40
34.2115 14.2457 1.9954 255 40 40
34.2155 14.2475 1.9954 255 40 40
34.2195 14.2494 1.9954 255 40 40
34.2235 14.2513 1.9954 255 40 40
34.2275 14.2531 1.9954 255 40 40
34.2315 14.2550 1.9954 255 40 40
34.2355 14.2568 1.9954 255 40 40
34.2355 14.2568 1.9954 255 40 40
34.2339 14.2604 1.9954 255 40 40
34.2322 14.2640 1.9954 255 40 40
34.2306 14.2676 1.9954 255 40 40
34.2289 14.2712 1.9954 255 40 40
34.2272 14.2748 1.9954 255 40 40
34.2256 14.2784 1.9954 255 40 40
34.2239 14.2819 1.9954 255 40 40
34.2222 14.2855 1.9954 255 40 40
34.2206 14.2891 1.9954 255 40 40
34.2189 14.2927 1.9954 255 40 40
34.2173 14.2963 1.9954 255 40 40
34.2156 14.2999 1.9954 255 40 40
34.2139 14.3035 1.9954 255 40 40
34.2123 14.3071 1.9954 255 40 40
34.2106 14.3106 1.9954 255 40 40
34.2089 14.3142 1.9954 255 40 40
34.2073 14.3178 1.9954 255 40 40
34.2056 14.3214 1.9954 255 40 40
34.2040 14.3250 1.9954 255 40 40
34.2023 14.3286 1.9954 255 40 40
34.2006 14.3322 1.9954 255 40 40
34.1990 14.3358 1.9954 255 40 40
34.1973 14.3393 1.9954 255 40 40
34.1956 14.3429 1.9954 255 40 40
34.1940 14.3465 1.9954 255 40 40
34.1923 14.3501 1.9954 255 40 40
34.1907 14.3537 1.9954 255 40 40
34.1890 14.3573 1.9954 255 40 40
34.1873 14.3609 1.9954 255 40 40
34.1857 14.3644 1.9954 255 40 40
34.1840 14.3680 1.9954 255 40 40
34.1823 14.3716 1.9954 255 40 40
34.1807 14.3752 1.9954 255 40 40
34.1790 14.3788 1.9954 255 40 40
34.1774 14.3824 1.9954 255 40 40
34.1757 14.3860 1.9954 255 40 40
34.1740 14.3896 1.9954 255 40 40
34.1724 14.3931 1.9954 255 40 40
34.1707 14.3967 1.9954 255 40 40
34.1690 14.4003 1.9954 255 40 40
34.1674 14.4039 1.9954 255 40 40
34.1657 14.4075 1.9954 255 40 40
34.1641 14.4111 1.9954 255 40 40
34.1624 14.4147 1.9954 255 40 40
34.1607 14.4183 1.9954 255 40 40
34.1591 14.4218 1.9954 255 40 40
34.1574 14.4254 1.9954 255 40 40
34.1557 14.4290 1.9954 255 40 40
34.1541 14.4326 1.9954 255 40 40
34.1524 14.4362 1.9954 255 40 40
34.1508 14.4398 1.9954 255 40 40
34.1491 14.4434 1.9954 255 40 40
34.1474 14.4470 1.9954 255 40 40
34.1458 14.4505 1.9954 255 40 40
34.1441 14.4541 1.9954 255 40 40
34.1424 14.4577 1.9954 255 40 40
34.1408 14.4613 1.9954 255 40 40
34.1391 14.4649 1.9954 255 40 40
34.1375 14.4685 1.9954 255 40 40
34.1358 14.4721 1.9954 255 40 40
34.1341 14.4756 1.9954 255 40 40
34.1325 14.4792 1.9954 255 40 40
34.1308 14.4828 1.9954 255 40 40
34.1291 14.4864 1.9954 255 40 40
34.1275 14.4900 1.9954 255 40 40
34.1258 14.4936 1.9954 255 40 40
34.1242 14.4972 1.9954 255 40 40
34.1225 14.5008 1.9954 255 40 40
34.1208 14.5043 1.9954 255 40 40
34.1192 14.5079 1.9954 255 40 40
34.1175 14.5115 1.9954 255 40 40
34.1158 14.5151 1.9954 255 40 40
34.1142 14.5187 1.9954 255 40 40
34.1125 14.5223 1.9954 255 40 40
34.1109 14.5259 1.9954 255 40 40
34.1092 14.5295 1.9954 255 40 40
34.1075 14.5330 1.9954 255 40 40
34.1059 14.5366 1.9954 255 40 40
34.1042 14.5402 1.9954 255 40 40
34.1025 14.5438 1.9954 255 40 40
34.1009 14.5474 1.9954 255 40 40
34.0992 14.5510 1.9954 255 40 40
34.0976 14.5546 1.9954 255 40 40
34.0959 14.5581 1.9954 255 40 40
34.0942 14.5617 1.9954 255 40 40
34.0926 14.5653 1.9954 255 40 40
34.0909 14.5689 1.9954 255 40 40
34.0892 14.5725 1.9954 255 40 40
34.0876 14.5761 1.9954 255 40 40
34.0859 14.5797 1.9954 255 40 40
34.0843 14.5833 1.9954 255 40 40
34.0826 14.5868 1.9954 255 40 40
34.0809 14.5904 1.9954 255 40 40
34.0793 14.5940 1.9954 255 40 40
34.0776 14.5976 1.9954 255 40 40
34.0759 14.6012 1.9954 255 40 40
34.0743 14.6048 1.9954 255 40 40
34.0726 14.6084 1.9954 255 40 40
34.0710 14.6120 1.9954 255 40 40
34.0693 14.6155 1.9954 255 40 40
34.0676 14.6191 1.9954 255 40 40
34.0660 14.6227 1.9954 255 40 40
34.0643 14.6263 1.9954 255 40 40
34.0626 14.6299 1.9954 255 40 40
34.0610 14.6335 1.9954 255 40 40
34.0593 14.6371 1.9954 255 40 40
34.0577 14.6407 1.9954 255 40 40
34.0560 14.6442 1.9954 255 40 40
34.0543 14.6478 1.9954 255 40 40
34.0527 14.6514 1.9954 255 40 40
34.0510 14.6550 1.9954 255 40 40
34.0493 14.6586 1.9954 255 40 40
34.0477 14.6622 1.9954 255 40 40
34.0460 14.6658 1.9954 255 40 40
34.0444 14.6693 1.9954 255 40 40
34.0427 14.6729 1.9954 255 40 40
34.0410 14.6765 1.9954 255 40 40
34.0394 14.6801 1.9954 255 40 40
34.0377 14.6837 1.9954 255 40 40
34.0360 14.6873 1.9954 255 40 40
34.0344 14.6909 1.9954 255 40 40
34.0327 14.6945 1.9954 255 40 40
34.0311 14.6980 1.9954 255 40 40
34.0294 14.7016 1.9954 255 40 40
34.0277 14.7052 1.9954 255 40 40
34.0261 14.7088 1.9954 255 40 40
34.0244 14.7124 1.9954 255 40 40
34.0227 14.7160 1.9954 255 40 40
34.0211 14.7196 1.9954 255 40 40
34.0194 14.7232 1.9954 255 40 40
34.0178 14.7267 1.9954 255 40 40
34.0161 14.7303 1.9954 255 40 40
34.0144 14.7339 1.9954 255 40 40
34.0128 14.7375 1.9954 255 40 40
34.0111 14.7411 1.9954 255 40 40
34.0094 14.7447 1.9954 255 40 40
34.0078 14.7483 1.9954 255 40 40
34.0061 14.7519 1.9954 255 40 40
34.0045 14.7554 1.9954 255 40 40
34.0028 14.7590 1.9954 255 40 40
34.0011 14.7626 1.9954 255 40 40
33.9995 14.7662 1.9954 255 40 40
33.9978 14.7698 1.9954 255 40 40
33.9961 14.7734 1.9954 255 40 40
33.9945 14.7770 1.9954 255 40 40
33.9928 14.7805 1.9954 255 40 40
33.9912 14.7841 1.9954 255 40 40
33.9895 14.7877 1.9954 255 40 40
33.9878 14.7913 1.9954 255 40 40
33.9862 14.7949 1.9954 255 40 40
33.9845 14.7985 1.9954 255 40 40
33.9828 14.8021 1.9954 255 40 40
33.9812 14.8057 1.9954 255 40 40
33.9795 14.8092 1.9954 255 40 40
33.9779 14.8128 1.9954 255 40 40
33.9762 14.8164 1.9954 255 40 40
33.9745 14.8200 1.9954 255 40 40
33.9729 14.8236 1.9954 255 40 40
33.9712 14.8272 1.9954 255 40 40
33.9695 14.8308 1.9954 255 40 40
33.9679 14.8344 1.9954 255 40 40
33.9662 14.8379 1.9954 255 40 40
33.9646 14.8415 1.9954 255 40 40
33.9629 14.8451 1.9954 255 40 40
33.9612 14.8487 1.9954 255 40 40
33.9612 14.8487 1.9954 255 40 40
33.9572 14.8468 1.9954 255 40 40
33.9532 14.8450 1.9954 255 40 40
33.9492 14.8431 1.9954 255 40 40
33.9452 14.8413 1.9954 255 40 40
33.9412 14.8394 1.9954 255 40 40
33.9371 14.8375 1.9954 255 40 40
33.9331 14.8357 1.9954 255 40 40
33.9291 14.8338 1.9954 255 40 40
33.9251 14.8320 1.9954 255 40 40
33.9211 14.8301 1.9954 255 40 40
33.9171 14.8282 1.9954 255 40 40
33.9131 14.8264 1.9954 255 40 40
33.9090 14.8245 1.9954 255 40 40
33.9050 14.8227 1.9954 255 40 40
33.9010 14.8208 1.9954 255 40 40
33.8970 14.8189 1.9954 255 40 40
33.8930 14.8171 1.9954 255 40 40
33.8890 14.8152 1.9954 255 40 40
33.8850 14.8134 1.9954 255 40 40
33.8810 14.8115 1.9954 255 40 40
33.8769 14.8096 1.9954 255 40 40
33.8729 14.8078 1.9954 255 40 40
33.8689 14.8059 1.9954 255 40 40
33.8649 14.8041 1.9954 255 40 40
33.8609 14.8022 1.9954 255 40 40
33.8569 14.8003 1.9954 255 40 40
33.8529 14.7985 1.9954 255 40 40
33.8488 14.7966 1.9954 255 40 40
33.8448 14.7948 1.9954 255 40 40
33.8408 14.7929 1.9954 255 40 40
33.8368 14.7910 1.9954 255 40 40
33.8328 14.7892 1.9954 255 40 40
33.8288 14.7873 1.9954 255 40 40
33.8248 14.7855 1.9954 255 40 40
33.8207 14.7836 1.9954 255 40 40
33.8167 14.7817 1.9954 255 40 40
33.8127 14.7799 1.9954 255 40 40
33.8087 14.7780 1.9954 255 40 40
33.8047 14.7762 1.9954 255 40 40
33.8007 14.7743 1.9954 255 40 40
33.7967 14.7724 1.9954 255 40 40
33.7927 14.7706 1.9954 255 40 40
33.7886 14.7687 1.9954 255 40 40
33.7846 14.7668 1.9954 255 40 40
33.7806 14.7650 1.9954 255 40 40
33.7766 14.7631 1.9954 255 40 40
33.7726 14.7613 1.9954 255 40 40
33.7686 14.7594 1.9954 255 40 40
33.7646 14.7575 1.9954 255 40 40
33.7605 14.7557 1.9954 255 40 40
33.7565 14.7538 1.9954 255 40 40
33.7525 14.7520 1.9954 255 40 40
33.7485 14.7501 1.9954 255 40 40
33.7445 14.7482 1.9954 255 40 40
33.7405 14.7464 1.9954 255 40 40
33.7365 14.7445 1.9954 255 40 40
33.7324 14.7427 1.9954 255 40 40
33.7284 14.7408 1.9954 255 40 40
33.7244 14.7389 1.9954 255 40 40
33.7204 14.7371 1.9954 255 40 40
33.7164 14.7352 1.9954 255 40 40
33.7124 14.7334 1.9954 255 40 40
33.7084 14.7315 1.9954 255 40 40
33.7043 14.7296 1.9954 255 40 40
33.7003 14.7278 1.9954 255 40 40
33.6963 14.7259 1.9954 255 40 40
33.6923 14.7241 1.9954 255 40 40
33.6883 14.7222 1.9954 255 40 40
33.6843 14.7203 1.9954 255 40 40
33.6803 14.7185 1.9954 255 40 40
33.6763 14.7166 1.9954 255 40 40
33.6722 14.7148 1.9954 255 40 40
33.6682 14.7129 1.9954 255 40 40
33.6642 14.7110 1.9954 255 40 40
33.6602 14.7092 1.9954 255 40 40
33.6562 14.7073 1.9954 255 40 40
33.6522 14.7055 1.9954 255 40 40
33.6482 14.7036 1.9954 255 40 40
33.6441 14.7017 1.9954 255 40 40
33.6401 14.6999 1.9954 255 40 40
33.6361 14.6980 1.9954 255 40 40
33.6321 14.6962 1.9954 255 40 40
33.6281 14.6943 1.9954 255 40 40
33.6241 14.6924 1.9954 255 40 40
33.6201 14.6906 1.9954 255 40 40
33.6160 14.6887 1.9954 255 40 40
33.6120 14.6869 1.9954 255 40 40
33.6080 14.6850 1.9954 255 40 40
33.6040 14.6831 1.9954 255 40 40
33.6000 14.6813 1.9954 255 40 40
33.5960 14.6794 1.9954 255 40 40
33.5920 14.6776 1.9954 255 40 40
33.5879 14.6757 1.9954 255 40 40
33.5839 14.6738 1.9954 255 40 40
33.5799 14.6720 1.9954 255 40 40
33.5759 14.6701 1.9954 255 40 40
33.5719 14.6683 1.9954 255 40 40
33.5679 14.6664 1.9954 255 40 40
33.5639 14.6645 1.9954 255 40 40
33.5599 14.6627 1.9954 255 40 40
33.5558 14.6608 1.9954 255 40 40
33.5518 14.6590 1.9954 255 40 40
33.5478 14.6571 1.9954 255 40 40
33.5438 14.6552 1.9954 255 40 40
33.5398 14.6534 1.9954 255 40 40
33.5358 14.6515 1.9954 255 40 40
33.5318 14.6497 1.9954 255 40 40
33.5277 14.6478 1.9954 255 40 40
33.5237 14.6459 1.9954 255 40 40
33.5197 14.6441 1.9954 255 40 40
33.5157 14.6422 1.9954 255 40 40
33.5117 14.6404 1.9954 255 40 40
33.5077 14.6385 1.9954 255 40 40
33.5037 14.6366 1.9954 255 40 40
33.4996 14.6348 1.9954 255 40 40
33.4956 14.6329 1.9954 255 40 40
33.4916 14.6311 1.9954 255 40 40
33.4876 14.6292 1.9954 255 40 40
33.4836 14.6273 1.9954 255 40 40
33.4796 14.6255 1.9954 255 40 40
33.4756 14.6236 1.9954 255 40 40
33.4715 14.6217 1.9954 255 40 40
33.4675 14.6199 1.9954 255 40 40
33.4635 14.6180 1.9954 255 40 40
33.4595 14.6162 1.9954 255 40 40
33.4555 14.6143 1.9954 255 40 40
33.4515 14.6124 1.9954 255 40 40
33.4475 14.6106 1.9954 255 40 40
33.4435 14.6087 1.9954 255 40 40
33.4394 14.6069 1.9954 255 40 40
33.4354 14.6050 1.9954 255 40 40
33.4314 14.6031 1.9954 255 40 40
33.4274 14.6013 1.9954 255 40 40
33.4234 14.5994 1.9954 255 40 40
33.4194 14.5976 1.9954 255 40 40
33.4154 14.5957 1.9954 255 40 40
33.4113 14.5938 1.9954 255 40 40
33.4073 14.5920 1.9954 255 40 40
33.4033 14.5901 1.9954 255 40 40
33.3993 14.5883 1.9954 255 40 40
33.3953 14.5864 1.9954 255 40 40
33.3913 14.5845 1.9954 255 40 40
33.3873 14.5827 1.9954 255 40 40
33.3832 14.5808 1.9954 255 40 40
33.3792 14.5790 1.9954 255 40 40
33.3752 14.5771 1.9954 255 40 40
33.3712 14.5752 1.9954 255 40 40
33.3672 14.5734 1.9954 255 40 40
33.3632 14.5715 1.9954 255 40 40
33.3592 14.5697 1.9954 255 40 40
33.3551 14.5678 1.9954 255 40 40
33.3511 14.5659 1.9954 255 40 40
33.3471 14.5641 1.9954 255 40 40
33.3431 14.5622 1.9954 255 40 40
33.3391 14.5604 1.9954 255 40 40
33.3351 14.5585 1.9954 255 40 40
33.3311 14.5566 1.9954 255 40 40
33.3270 14.5548 1.9954 255 40 40
33.3230 14.5529 1.9954 255 40 40
33.3190 14.5511 1.9954 255 40 40
33.3150 14.5492 1.9954 255 40 40
33.3110 14.5473 1.9954 255 40 40
33.3070 14.5455 1.9954 255 40 40
33.3030 14.5436 1.9954 255 40 40
33.2990 14.5418 1.9954 255 40 40
33.2990 14.5418 0.2334 255 40 40
33.2990 14.5418 0.2440 255 40 40
33.2990 14.5418 0.2547 255 40 40
33.2990 14.5418 0.2654 255 40 40
33.2990 14.5418 0.2761 255 40 40
33.2990 14.5418 0.2868 255 40 40
33.2990 14.5418 0.2974 255 40 40
33.2990 14.5418 0.3081 255 40 40
33.2990 14.5418 0.3188 255 40 40
33.2990 14.5418 0.3295 255 40 40
33.2990 14.5418 0.3402 255 40 40
33.2990 14.5418 0.3508 255 40 40
33.2990 14.5418 0.3615 255 40 40
33.2990 14.5418 0.3722 255 40 40
33.2990 14.5418 0.3829 255 40 40
33.2990 14.5418 0.3936 255 40 40
33.2990 14.5418 0.4042 255 40 40
33.2990 14.5418 0.4149 255 40 40
33.2990 14.5418 0.4256 255 40 40
33.2990 14.5418 0.4363 255 40 40
33.2990 14.5418 0.4469 255 40 40
33.2990 14.5418 0.4576 255 40 40
33.2990 14.5418 0.4683 255 40 40
33.2990 14.5418 0.4790 255 40 40
33.2990 14.5418 0.4897 255 40 40
33.2990 14.5418 0.5003 255 40 40
33.2990 14.5418 0.5110 255 40 40
33.2990 14.5418 0.5217 255 40 40
33.2990 14.5418 0.5324 255 40 40
33.2990 14.5418 0.5431 255 40 40
33.2990 14.5418 0.5537 255 40 40
33.2990 14.5418 0.5644 255 40 40
33.2990 14.5418 0.5751 255 40 40
33.2990 14.5418 0.5858 255 40 40
33.2990 14.5418 0.5965 255 40 40
33.2990 14.5418 0.6071 255 40 40
33.2990 14.5418 0.6178 255 40 40
33.2990 14.5418 0.6285 255 40 40
33.2990 14.5418 0.6392 255 40 40
33.2990 14.5418 0.6499 255 40 40
33.2990 14.5418 0.6605 255 40 40
33.2990 14.5418 0.6712 255 40 40
33.2990 14.5418 0.6819 255 40 40
33.2990 14.5418 0.6926 255 40 40
33.2990 14.5418 0.7032 255 40 40
33.2990 14.5418 0.7139 255 40 40
33.2990 14.5418 0.7246 255 40 40
33.2990 14.5418 0.7353 255 40 40
33.2990 14.5418 0.7460 255 40 40
33.2990 14.5418 0.7566 255 40 40
33.2990 14.5418 0.7673 255 40 40
33.2990 14.5418 0.7780 255 40 40
33.2990 14.5418 0.7887 255 40 40
33.2990 14.5418 0.7994 255 40 40
33.2990 14.5418 0.8100 255 40 40
33.2990 14.5418 0.8207 255 40 40
33.2990 14.5418 0.8314 255 40 40
33.2990 14.5418 0.8421 255 40 40
33.2990 14.5418 0.8528 255 40 40
33.2990 14.5418 0.8634 255 40 40
33.2990 14.5418 0.8741 255 40 40
33.2990 14.5418 0.8848 255 40 40
33.2990 14.5418 0.8955 255 40 40
33.2990 14.5418 0.9062 255 40 40
33.2990 14.5418 0.9168 255 40 40
33.2990 14.5418 0.9275 255 40 40
33.2990 14.5418 0.9382 255 40 40
33.2990 14.5418 0.9489 255 40 40
33.2990 14.5418 0.9596 255 40 40
33.2990 14.5418 0.9702 255 40 40
33.2990 14.5418 0.9809 255 40 40
33.2990 14.5418 0.9916 255 40 40
33.2990 14.5418 1.0023 255 40 40
33.2990 14.5418 1.0129 255 40 40
33.2990 14.5418 1.0236 255 40 40
33.2990 14.5418 1.0343 255 40 40
33.2990 14.5418 1.0450 255 40 40
33.2990 14.5418 1.0557 255 40 40
33.2990 14.5418 1.0663 255 40 40
33.2990 14.5418 1.0770 255 40 40
33.2990 14.5418 1.0877 255 40 40
33.2990 14.5418 1.0984 255 40 40
33.2990 14.5418 1.1091 255 40 40
33.2990 14.5418 1.1197 255 40 40
33.2990 14.5418 1.1304 255 40 40
33.2990 14.5418 1.1411 255 40 40
33.2990 14.5418 1.1518 255 40 40
33.2990 14.5418 1.1625 255 40 40
33.2990 14.5418 1.1731 255 40 40
33.2990 14.5418 1.1838 255 40 40
33.2990 14.5418 1.1945 255 40 40
33.2990 14.5418 1.2052 255 40 40
33.2990 14.5418 1.2159 255 40 40
33.2990 14.5418 1.2265 255 40 40
33.2990 14.5418 1.2372 255 40 40
33.2990 14.5418 1.2479 255 40 40
33.2990 14.5418 1.2586 255 40 40
33.2990 14.5418 1.2692 255 40 40
33.2990 14.5418 1.2799 255 40 40
33.2990 14.5418 1.2906 255 40 40
33.2990 14.5418 1.3013 255 40 40
33.2990 14.5418 1.3120 255 40 40
33.2990 14.5418 1.3226 255 40 40
33.2990 14.5418 1.3333 255 40 40
33.2990 14.5418 1.3440 255 40 40
33.2990 14.5418 1.3547 255 40 40
33.2990 14.5418 1.3654 255 40 40
33.2990 14.5418 1.3760 255 40 40
33.2990 14.5418 1.3867 255 40 40
33.2990 14.5418 1.3974 255 40 40
33.2990 14.5418 1.4081 255 40 40
33.2990 14.5418 1.4188 255 40 40
33.2990 14.5418 1.4294 255 40 40
33.2990 14.5418 1.4401 255 40 40
33.2990 14.5418 1.4508 255 40 40
33.2990 14.5418 1.4615 255 40 40
33.2990 14.5418 1.4722 255 40 40
33.2990 14.5418 1.4828 255 40 40
33.2990 14.5418 1.4935 255 40 40
33.2990 14.5418 1.5042 255 40 40
33.2990 14.5418 1.5149 255 40 40
33.2990 14.5418 1.5255 255 40 40
33.2990 14.5418 1.5362 255 40 40
33.2990 14.5418 1.5469 255 40 40
33.2990 14.5418 1.5576 255 40 40
33.2990 14.5418 1.5683 255 40 40
33.2990 14.5418 1.5789 255 40 40
33.2990 14.5418 1.5896 255 40 40
33.2990 14.5418 1.6003 255 40 40
33.2990 14.5418 1.6110 255 40 40
33.2990 14.5418 1.6217 255 40 40
33.2990 14.5418 1.6323 255 40 40
33.2990 14.5418 1.6430 255 40 40
33.2990 14.5418 1.6537 255 40 40
33.2990 14.5418 1.6644 255 40 40
33.2990 14.5418 1.6751 255 40 40
33.2990 14.5418 1.6857 255 40 40
33.2990 14.5418 1.6964 255 40 40
33.2990 14.5418 1.7071 255 40 40
33.2990 14.5418 1.7178 255 40 40
33.2990 14.5418 1.7285 255 40 40
33.2990 14.5418 1.7391 255 40 40
33.2990 14.5418 1.7498 255 40 40
33.2990 14.5418 1.7605 255 40 40
33.2990 14.5418 1.7712 255 40 40
33.2990 14.5418 1.7818 255 40 40
33.2990 14.5418 1.7925 255 40 40
33.2990 14.5418 1.8032 255 40 40
33.2990 14.5418 1.8139 255 40 40
33.2990 14.5418 1.8246 255 40 40
33.2990 14.5418 1.8352 255 40 40
33.2990 14.5418 1.8459 255 40 40
33.2990 14.5418 1.8566 255 40 40
33.2990 14.5418 1.8673 255 40 40
33.2990 14.5418 1.8780 255 40 40
33.2990 14.5418 1.8886 255 40 40
33.2990 14.5418 1.8993 255 40 40
33.2990 14.5418 1.9100 255 40 40
33.2990 14.5418 1.9207 255 40 40
33.2990 14.5418 1.9314 255 40 40
33.2990 14.5418 1.9420 255 40 40
33.2990 14.5418 1.9527 255 40 40
33.2990 14.5418 1.9634 255 40 40
33.2990 14.5418 1.9741 255 40 40
33.2990 14.5418 1.9848 255 40 40
33.2990 14.5418 1.9954 255 40 40
33.5733 13.9499 0.2334 255 40 40
33.5733 13.9499 0.2440 255 40 40
33.5733 13.9499 0.2547 255 40 40
33.5733 13.9499 0.2654 255 40 40
33.5733 13.9499 0.2761 255 40 40
33.5733 13.9499 0.2868 255 40 40
33.5733 13.9499 0.2974 255 40 40
33.5733 13.9499 0.3081 255 40 40
33.5733 13.9499 0.3188 255 40 40
33.5733 13.9499 0.3295 255 40 40
33.5733 13.9499 0.3402 255 40 40
33.5733 13.9499 0.3508 255 40 40
33.5733 13.9499 0.3615 255 40 40
33.5733 13.9499 0.3722 255 40 40
33.5733 13.9499 0.3829 255 40 40
33.5733 13.9499 0.3936 255 40 40
33.5733 13.9499 0.4042 255 40 40
33.5733 13.9499 0.4149 255 40 40
33.5733 13.9499 0.4256 255 40 40
33.5733 13.9499 0.4363 255 40 40
33.5733 13.9499 0.4469 255 40 40
33.5733 13.9499 0.4576 255 40 40
33.5733 13.9499 0.4683 255 40 40
33.5733 13.9499 0.4790 255 40 40
33.5733 13.9499 0.4897 255 40 40
33.5733 13.9499 0.5003 255 40 40
33.5733 13.9499 0.5110 255 40 40
33.5733 13.9499 0.5217 255 40 40
33.5733 13.9499 0.5324 255 40 40
33.5733 13.9499 0.5431 255 40 40
33.5733 13.9499 0.5537 255 40 40
33.5733 13.9499 0.5644 255 40 40
33.5733 13.9499 0.5751 255 40 40
33.5733 13.9499 0.5858 255 40 40
33.5733 13.9499 0.5965 255 40 40
33.5733 13.9499 0.6071 255 40 40
33.5733 13.9499 0.6178 255 40 40
33.5733 13.9499 0.6285 255 40 40
33.5733 13.9499 0.6392 255 40 40
33.5733 13.9499 0.6499 255 40 40
33.5733 13.9499 0.6605 255 40 40
33.5733 13.9499 0.6712 255 40 40
33.5733 13.9499 0.6819 255 40 40
33.5733 13.9499 0.6926 255 40 40
33.5733 13.9499 0.7032 255 40 40
33.5733 13.9499 0.7139 255 40 40
33.5733 13.9499 0.7246 255 40 40
33.5733 13.9499 0.7353 255 40 40
33.5733 13.9499 0.7460 255 40 40
33.5733 13.9499 0.7566 255 40 40
33.5733 13.9499 0.7673 255 40 40
33.5733 13.9499 0.7780 255 40 40
33.5733 13.9499 0.7887 255 40 40
33.5733 13.9499 0.7994 255 40 40
33.5733 13.9499 0.8100 255 40 40
33.5733 13.9499 0.8207 255 40 40
33.5733 13.9499 0.8314 255 40 40
33.5733 13.9499 0.8421 255 40 40
33.5733 13.9499 0.8528 255 40 40
33.5733 13.9499 0.8634 255 40 40
33.5733 13.9499 0.8741 255 40 40
33.5733 13.9499 0.8848 255 40 40
33.5733 13.9499 0.8955 255 40 40
33.5733 13.9499 0.9062 255 40 40
33.5733 13.9499 0.9168 255 40 40
33.5733 13.9499 0.9275 255 40 40
33.5733 13.9499 0.9382 255 40 40
33.5733 13.9499 0.9489 255 40 40
33.5733 13.9499 0.9596 255 40 40
33.5733 13.9499 0.9702 255 40 40
33.5733 13.9499 0.9809 255 40 40
33.5733 13.9499 0.9916 255 40 40
33.5733 13.9499 1.0023 255 40 40
33.5733 13.9499 1.0129 255 40 40
33.5733 13.9499 1.0236 255 40 40
33.5733 13.9499 1.0343 255 40 40
33.5733 13.9499 1.0450 255 40 40
33.5733 13.9499 1.0557 255 40 40
33.5733 13.9499 1.0663 255 40 40
33.5733 13.9499 1.0770 255 40 40
33.5733 13.9499 1.0877 255 40 40
33.5733 13.9499 1.0984 255 40 40
33.5733 13.9499 1.1091 255 40 40
33.5733 13.9499 1.1197 255 40 40
33.5733 13.9499 1.1304 255 40 40
33.5733 13.9499 1.1411 255 40 40
33.5733 13.9499 1.1518 255 40 40
33.5733 13.9499 1.1625 255 40 40
33.5733 13.9499 1.1731 255 40 40
33.5733 13.9499 1.1838 255 40 40
33.5733 13.9499 1.1945 255 40 40
33.5733 13.9499 1.2052 255 40 40
33.5733 13.9499 1.2159 255 40 40
33.5733 13.9499 1.2265 255 40 40
33.5733 13.9499 1.2372 255 40 40
33.5733 13.9499 1.2479 255 40 40
33.5733 13.9499 1.2586 255 40 40
