ply
format ascii 1.0
element vertex 1406
property float x
property float y
property float z
property uchar red
property uchar green
property uchar blue
end_header
24.2840 6.4335 0.1473 100 150 255
24.2785 6.4432 0.1473 100 150 255
24.2730 6.4529 0.1473 100 150 255
24.2675 6.4626 0.1473 100 150 255
24.2620 6.4723 0.1473 100 150 255
24.2565 6.4820 0.1473 100 150 255
24.2510 6.4918 0.1473 100 150 255
24.2455 6.5015 0.1473 100 150 255
24.2400 6.5112 0.1473 100 150 255
24.2345 6.5209 0.1473 100 150 255
24.2290 6.5306 0.1473 100 150 255
24.2235 6.5403 0.1473 100 150 255
24.2180 6.5501 0.1473 100 150 255
24.2125 6.5598 0.1473 100 150 255
24.2070 6.5695 0.1473 100 150 255
24.2015 6.5792 0.1473 100 150 255
24.1960 6.5889 0.1473 100 150 255
24.1905 6.5986 0.1473 100 150 255
24.1849 6.6084 0.1473 100 150 255
24.1794 6.6181 0.1473 100 150 255
24.1739 6.6278 0.1473 100 150 255
24.1684 6.6375 0.1473 100 150 255
24.1629 6.6472 0.1473 100 150 255
24.1574 6.6569 0.1473 100 150 255
24.1519 6.6667 0.1473 100 150 255
24.1464 6.6764 0.1473 100 150 255
24.1409 6.6861 0.1473 100 150 255
24.1354 6.6958 0.1473 100 150 255
24.1299 6.7055 0.1473 100 150 255
24.1244 6.7152 0.1473 100 150 255
24.1189 6.7250 0.1473 100 150 255
24.1189 6.7250 0.1473 100 150 255
24.0942 6.7110 0.1473 100 150 255
24.0696 6.6970 0.1473 100 150 255
24.0449 6.6831 0.1473 100 150 255
24.0203 6.6691 0.1473 100 150 255
23.9956 6.6551 0.1473 100 150 255
23.9710 6.6412 0.1473 100 150 255
23.9464 6.6272 0.1473 100 150 255
23.9217 6.6133 0.1473 100 150 255
23.8971 6.5993 0.1473 100 150 255
23.8724 6.5853 0.1473 100 150 255
23.8478 6.5714 0.1473 100 150 255
23.8231 6.5574 0.1473 100 150 255
23.7985 6.5434 0.1473 100 150 255
23.7738 6.5295 0.1473 100 150 255
23.7492 6.5155 0.1473 100 150 255
23.7245 6.5015 0.1473 100 150 255
23.6999 6.4876 0.1473 100 150 255
23.6752 6.4736 0.1473 100 150 255
23.6506 6.4596 0.1473 100 150 255
23.6259 6.4457 0.1473 100 150 255
23.6013 6.4317 0.1473 100 150 255
23.5766 6.4177 0.1473 100 150 255
23.5520 6.4038 0.1473 100 150 255
23.5273 6.3898 0.1473 100 150 255
23.5027 6.3759 0.1473 100 150 255
23.4781 6.3619 0.1473 100 150 255
23.4534 6.3479 0.1473 100 150 255
23.4288 6.3340 0.1473 100 150 255
23.4041 6.3200 0.1473 100 150 255
23.3795 6.3060 0.1473 100 150 255
23.3548 6.2921 0.1473 100 150 255
23.3302 6.2781 0.1473 100 150 255
23.3055 6.2641 0.1473 100 150 255
23.2809 6.2502 0.1473 100 150 255
23.2562 6.2362 0.1473 100 150 255
23.2316 6.2222 0.1473 100 150 255
23.2069 6.2083 0.1473 100 150 255
23.1823 6.1943 0.1473 100 150 255
23.1576 6.1804 0.1473 100 150 255
23.1330 6.1664 0.1473 100 150 255
23.1083 6.1524 0.1473 100 150 255
23.0837 6.1385 0.1473 100 150 255
23.0590 6.1245 0.1473 100 150 255
23.0344 6.1105 0.1473 100 150 255
23.0098 6.0966 0.1473 100 150 255
22.9851 6.0826 0.1473 100 150 255
22.9605 6.0686 0.1473 100 150 255
22.9358 6.0547 0.1473 100 150 255
22.9112 6.0407 0.1473 100 150 255
22.8865 6.0267 0.1473 100 150 255
22.8619 6.0128 0.1473 100 150 255
22.8372 5.9988 0.1473 100 150 255
22.8126 5.9849 0.1473 100 150 255
22.7879 5.9709 0.1473 100 150 255
22.7633 5.9569 0.1473 100 150 255
22.7386 5.9430 0.1473 100 150 255
22.7140 5.9290 0.1473 100 150 255
22.6893 5.9150 0.1473 100 150 255
22.6647 5.9011 0.1473 100 150 255
22.6400 5.8871 0.1473 100 150 255
22.6154 5.8731 0.1473 100 150 255
22.5907 5.8592 0.1473 100 150 255
22.5661 5.8452 0.1473 100 150 255
22.5415 5.8312 0.1473 100 150 255
22.5168 5.8173 0.1473 100 150 255
22.4922 5.8033 0.1473 100 150 255
22.4675 5.7894 0.1473 100 150 255
22.4429 5.7754 0.1473 100 150 255
22.4182 5.7614 0.1473 100 150 255
22.3936 5.7475 0.1473 100 150 255
22.3689 5.7335 0.1473 100 150 255
22.3443 5.7195 0.1473 100 150 255
22.3196 5.7056 0.1473 100 150 255
22.2950 5.6916 0.1473 100 150 255
22.2703 5.6776 0.1473 100 150 255
22.2457 5.6637 0.1473 100 150 255
22.2210 5.6497 0.1473 100 150 255
22.1964 5.6357 0.1473 100 150 255
22.1717 5.6218 0.1473 100 150 255
22.1471 5.6078 0.1473 100 150 255
22.1224 5.5939 0.1473 100 150 255
22.0978 5.5799 0.1473 100 150 255
22.0732 5.5659 0.1473 100 150 255
22.0485 5.5520 0.1473 100 150 255
22.0239 5.5380 0.1473 100 150 255
21.9992 5.5240 0.1473 100 150 255
21.9746 5.5101 0.1473 100 150 255
21.9499 5.4961 0.1473 100 150 255
21.9253 5.4821 0.1473 100 150 255
21.9006 5.4682 0.1473 100 150 255
21.8760 5.4542 0.1473 100 150 255
21.8513 5.4402 0.1473 100 150 255
21.8267 5.4263 0.1473 100 150 255
21.8020 5.4123 0.1473 100 150 255
21.7774 5.3984 0.1473 100 150 255
21.7527 5.3844 0.1473 100 150 255
21.7281 5.3704 0.1473 100 150 255
21.7034 5.3565 0.1473 100 150 255
21.6788 5.3425 0.1473 100 150 255
21.6542 5.3285 0.1473 100 150 255
21.6295 5.3146 0.1473 100 150 255
21.6049 5.3006 0.1473 100 150 255
21.5802 5.2866 0.1473 100 150 255
21.5556 5.2727 0.1473 100 150 255
21.5309 5.2587 0.1473 100 150 255
21.5063 5.2447 0.1473 100 150 255
21.4816 5.2308 0.1473 100 150 255
21.4570 5.2168 0.1473 100 150 255
21.4323 5.2029 0.1473 100 150 255
21.4077 5.1889 0.1473 100 150 255
21.3830 5.1749 0.1473 100 150 255
21.3584 5.1610 0.1473 100 150 255
21.3337 5.1470 0.1473 100 150 255
21.3091 5.1330 0.1473 100 150 255
21.2844 5.1191 0.1473 100 150 255
21.2598 5.1051 0.1473 100 150 255
21.2351 5.0911 0.1473 100 150 255
21.2105 5.0772 0.1473 100 150 255
21.1859 5.0632 0.1473 100 150 255
21.1612 5.0492 0.1473 100 150 255
21.1366 5.0353 0.1473 100 150 255
21.1119 5.0213 0.1473 100 150 255
21.0873 5.0073 0.1473 100 150 255
21.0626 4.9934 0.1473 100 150 255
21.0380 4.9794 0.1473 100 150 255
21.0133 4.9655 0.1473 100 150 255
20.9887 4.9515 0.1473 100 150 255
20.9640 4.9375 0.1473 100 150 255
20.9394 4.9236 0.1473 100 150 255
20.9147 4.9096 0.1473 100 150 255
20.8901 4.8956 0.1473 100 150 255
20.8654 4.8817 0.1473 100 150 255
20.8408 4.8677 0.1473 100 150 255
20.8161 4.8537 0.1473 100 150 255
20.7915 4.8398 0.1473 100 150 255
20.7668 4.8258 0.1473 100 150 255
20.7422 4.8118 0.1473 100 150 255
20.7176 4.7979 0.1473 100 150 255
20.6929 4.7839 0.1473 100 150 255
20.6683 4.7700 0.1473 100 150 255
20.6436 4.7560 0.1473 100 150 255
20.6190 4.7420 0.1473 100 150 255
20.5943 4.7281 0.1473 100 150 255
20.5697 4.7141 0.1473 100 150 255
20.5450 4.7001 0.1473 100 150 255
20.5204 4.6862 0.1473 100 150 255
20.4957 4.6722 0.1473 100 150 255
20.4711 4.6582 0.1473 100 150 255
20.4464 4.6443 0.1473 100 150 255
20.4218 4.6303 0.1473 100 150 255
20.3971 4.6163 0.1473 100 150 255
20.3725 4.6024 0.1473 100 150 255
20.3478 4.5884 0.1473 100 150 255
20.3232 4.5745 0.1473 100 150 255
20.2985 4.5605 0.1473 100 150 255
20.2739 4.5465 0.1473 100 150 255
20.2493 4.5326 0.1473 100 150 255
20.2246 4.5186 0.1473 100 150 255
20.2000 4.5046 0.1473 100 150 255
20.1753 4.4907 0.1473 100 150 255
20.1507 4.4767 0.1473 100 150 255
20.1260 4.4627 0.1473 100 150 255
20.1014 4.4488 0.1473 100 150 255
20.0767 4.4348 0.1473 100 150 255
20.0521 4.4208 0.1473 100 150 255
20.0521 4.4208 0.1473 100 150 255
20.0576 4.4111 0.1473 100 150 255
20.0631 4.4014 0.1473 100 150 255
20.0686 4.3917 0.1473 100 150 255
20.0741 4.3820 0.1473 100 150 255
20.0796 4.3723 0.1473 100 150 255
20.0851 4.3625 0.1473 100 150 255
20.0906 4.3528 0.1473 100 150 255
20.0961 4.3431 0.1473 100 150 255
20.1016 4.3334 0.1473 100 150 255
20.1071 4.3237 0.1473 100 150 255
20.1126 4.3140 0.1473 100 150 255
20.1181 4.3042 0.1473 100 150 255
20.1236 4.2945 0.1473 100 150 255
20.1291 4.2848 0.1473 100 150 255
20.1347 4.2751 0.1473 100 150 255
20.1402 4.2654 0.1473 100 150 255
20.1457 4.2557 0.1473 100 150 255
20.1512 4.2459 0.1473 100 150 255
20.1567 4.2362 0.1473 100 150 255
20.1622 4.2265 0.1473 100 150 255
20.1677 4.2168 0.1473 100 150 255
20.1732 4.2071 0.1473 100 150 255
20.1787 4.1974 0.1473 100 150 255
20.1842 4.1876 0.1473 100 150 255
20.1897 4.1779 0.1473 100 150 255
20.1952 4.1682 0.1473 100 150 255
20.2007 4.1585 0.1473 100 150 255
20.2062 4.1488 0.1473 100 150 255
20.2117 4.1391 0.1473 100 150 255
20.2172 4.1293 0.1473 100 150 255
20.2227 4.1196 0.1473 100 150 255
20.2282 4.1099 0.1473 100 150 255
20.2337 4.1002 0.1473 100 150 255
20.2393 4.0905 0.1473 100 150 255
20.2448 4.0808 0.1473 100 150 255
20.2503 4.0710 0.1473 100 150 255
20.2558 4.0613 0.1473 100 150 255
20.2613 4.0516 0.1473 100 150 255
20.2668 4.0419 0.1473 100 150 255
20.2723 4.0322 0.1473 100 150 255
20.2778 4.0224 0.1473 100 150 255
20.2833 4.0127 0.1473 100 150 255
20.2888 4.0030 0.1473 100 150 255
20.2943 3.9933 0.1473 100 150 255
20.2998 3.9836 0.1473 100 150 255
20.3053 3.9739 0.1473 100 150 255
20.3108 3.9641 0.1473 100 150 255
20.3163 3.9544 0.1473 100 150 255
20.3218 3.9447 0.1473 100 150 255
20.3273 3.9350 0.1473 100 150 255
20.3328 3.9253 0.1473 100 150 255
20.3383 3.9156 0.1473 100 150 255
20.3439 3.9058 0.1473 100 150 255
20.3494 3.8961 0.1473 100 150 255
20.3549 3.8864 0.1473 100 150 255
20.3604 3.8767 0.1473 100 150 255
20.3659 3.8670 0.1473 100 150 255
20.3714 3.8573 0.1473 100 150 255
20.3769 3.8475 0.1473 100 150 255
20.3824 3.8378 0.1473 100 150 255
20.3879 3.8281 0.1473 100 150 255
20.3934 3.8184 0.1473 100 150 255
20.3989 3.8087 0.1473 100 150 255
20.4044 3.7990 0.1473 100 150 255
20.4099 3.7892 0.1473 100 150 255
20.4154 3.7795 0.1473 100 150 255
20.4209 3.7698 0.1473 100 150 255
20.4264 3.7601 0.1473 100 150 255
20.4319 3.7504 0.1473 100 150 255
20.4374 3.7407 0.1473 100 150 255
20.4429 3.7309 0.1473 100 150 255
20.4485 3.7212 0.1473 100 150 255
20.4540 3.7115 0.1473 100 150 255
20.4595 3.7018 0.1473 100 150 255
20.4650 3.6921 0.1473 100 150 255
20.4705 3.6824 0.1473 100 150 255
20.4760 3.6726 0.1473 100 150 255
20.4815 3.6629 0.1473 100 150 255
20.4870 3.6532 0.1473 100 150 255
20.4925 3.6435 0.1473 100 150 255
20.4980 3.6338 0.1473 100 150 255
20.5035 3.6241 0.1473 100 150 255
20.5090 3.6143 0.1473 100 150 255
20.5145 3.6046 0.1473 100 150 255
20.5200 3.5949 0.1473 100 150 255
20.5255 3.5852 0.1473 100 150 255
20.5310 3.5755 0.1473 100 150 255
20.5365 3.5658 0.1473 100 150 255
20.5420 3.5560 0.1473 100 150 255
20.5475 3.5463 0.1473 100 150 255
20.5531 3.5366 0.1473 100 150 255
20.5586 3.5269 0.1473 100 150 255
20.5641 3.5172 0.1473 100 150 255
20.5696 3.5074 0.1473 100 150 255
20.5751 3.4977 0.1473 100 150 255
20.5806 3.4880 0.1473 100 150 255
20.5861 3.4783 0.1473 100 150 255
20.5916 3.4686 0.1473 100 150 255
20.5971 3.4589 0.1473 100 150 255
20.6026 3.4491 0.1473 100 150 255
20.6081 3.4394 0.1473 100 150 255
20.6136 3.4297 0.1473 100 150 255
20.6191 3.4200 0.1473 100 150 255
20.6246 3.4103 0.1473 100 150 255
20.6301 3.4006 0.1473 100 150 255
20.6356 3.3908 0.1473 100 150 255
20.6411 3.3811 0.1473 100 150 255
20.6466 3.3714 0.1473 100 150 255
20.6521 3.3617 0.1473 100 150 255
20.6577 3.3520 0.1473 100 150 255
20.6632 3.3423 0.1473 100 150 255
20.6687 3.3325 0.1473 100 150 255
20.6742 3.3228 0.1473 100 150 255
20.6797 3.3131 0.1473 100 150 255
20.6852 3.3034 0.1473 100 150 255
20.6907 3.2937 0.1473 100 150 255
20.6962 3.2840 0.1473 100 150 255
20.7017 3.2742 0.1473 100 150 255
20.7072 3.2645 0.1473 100 150 255
20.7127 3.2548 0.1473 100 150 255
20.7182 3.2451 0.1473 100 150 255
20.7237 3.2354 0.1473 100 150 255
20.7292 3.2257 0.1473 100 150 255
20.7347 3.2159 0.1473 100 150 255
20.7402 3.2062 0.1473 100 150 255
20.7457 3.1965 0.1473 100 150 255
20.7512 3.1868 0.1473 100 150 255
20.7568 3.1771 0.1473 100 150 255
20.7623 3.1674 0.1473 100 150 255
20.7678 3.1576 0.1473 100 150 255
20.7733 3.1479 0.1473 100 150 255
20.7788 3.1382 0.1473 100 150 255
20.7843 3.1285 0.1473 100 150 255
20.7898 3.1188 0.1473 100 150 255
20.7953 3.1091 0.1473 100 150 255
20.8008 3.0993 0.1473 100 150 255
20.8063 3.0896 0.1473 100 150 255
20.8118 3.0799 0.1473 100 150 255
20.8173 3.0702 0.1473 100 150 255
20.8228 3.0605 0.1473 100 150 255
20.8283 3.0508 0.1473 100 150 255
20.8338 3.0410 0.1473 100 150 255
20.8393 3.0313 0.1473 100 150 255
20.8448 3.0216 0.1473 100 150 255
20.8503 3.0119 0.1473 100 150 255
20.8558 3.0022 0.1473 100 150 255
20.8614 2.9924 0.1473 100 150 255
20.8669 2.9827 0.1473 100 150 255
20.8724 2.9730 0.1473 100 150 255
20.8779 2.9633 0.1473 100 150 255
20.8834 2.9536 0.1473 100 150 255
20.8889 2.9439 0.1473 100 150 255
20.8944 2.9341 0.1473 100 150 255
20.8999 2.9244 0.1473 100 150 255
20.9054 2.9147 0.1473 100 150 255
20.9109 2.9050 0.1473 100 150 255
20.9164 2.8953 0.1473 100 150 255
20.9219 2.8856 0.1473 100 150 255
20.9274 2.8758 0.1473 100 150 255
20.9329 2.8661 0.1473 100 150 255
20.9384 2.8564 0.1473 100 150 255
20.9439 2.8467 0.1473 100 150 255
20.9494 2.8370 0.1473 100 150 255
20.9549 2.8273 0.1473 100 150 255
20.9604 2.8175 0.1473 100 150 255
20.9604 2.8175 2.1841 100 150 255
20.9851 2.8315 2.1841 100 150 255
21.0097 2.8455 2.1841 100 150 255
21.0344 2.8594 2.1841 100 150 255
21.0590 2.8734 2.1841 100 150 255
21.0837 2.8874 2.1841 100 150 255
21.1083 2.9013 2.1841 100 150 255
21.1330 2.9153 2.1841 100 150 255
21.1576 2.9293 2.1841 100 150 255
21.1823 2.9432 2.1841 100 150 255
21.2069 2.9572 2.1841 100 150 255
21.2316 2.9712 2.1841 100 150 255
21.2562 2.9851 2.1841 100 150 255
21.2809 2.9991 2.1841 100 150 255
21.3055 3.0130 2.1841 100 150 255
21.3302 3.0270 2.1841 100 150 255
21.3548 3.0410 2.1841 100 150 255
21.3795 3.0549 2.1841 100 150 255
21.4041 3.0689 2.1841 100 150 255
21.4287 3.0829 2.1841 100 150 255
21.4534 3.0968 2.1841 100 150 255
21.4780 3.1108 2.1841 100 150 255
21.5027 3.1248 2.1841 100 150 255
21.5273 3.1387 2.1841 100 150 255
21.5520 3.1527 2.1841 100 150 255
21.5766 3.1667 2.1841 100 150 255
21.6013 3.1806 2.1841 100 150 255
21.6259 3.1946 2.1841 100 150 255
21.6506 3.2085 2.1841 100 150 255
21.6752 3.2225 2.1841 100 150 255
21.6999 3.2365 2.1841 100 150 255
21.7245 3.2504 2.1841 100 150 255
21.7492 3.2644 2.1841 100 150 255
21.7738 3.2784 2.1841 100 150 255
21.7985 3.2923 2.1841 100 150 255
21.8231 3.3063 2.1841 100 150 255
21.8478 3.3203 2.1841 100 150 255
21.8724 3.3342 2.1841 100 150 255
21.8970 3.3482 2.1841 100 150 255
21.9217 3.3622 2.1841 100 150 255
21.9463 3.3761 2.1841 100 150 255
21.9710 3.3901 2.1841 100 150 255
21.9956 3.4040 2.1841 100 150 255
22.0203 3.4180 2.1841 100 150 255
22.0449 3.4320 2.1841 100 150 255
22.0696 3.4459 2.1841 100 150 255
22.0942 3.4599 2.1841 100 150 255
22.1189 3.4739 2.1841 100 150 255
22.1435 3.4878 2.1841 100 150 255
22.1682 3.5018 2.1841 100 150 255
22.1928 3.5158 2.1841 100 150 255
22.2175 3.5297 2.1841 100 150 255
22.2421 3.5437 2.1841 100 150 255
22.2668 3.5577 2.1841 100 150 255
22.2914 3.5716 2.1841 100 150 255
22.3161 3.5856 2.1841 100 150 255
22.3407 3.5995 2.1841 100 150 255
22.3653 3.6135 2.1841 100 150 255
22.3900 3.6275 2.1841 100 150 255
22.4146 3.6414 2.1841 100 150 255
22.4393 3.6554 2.1841 100 150 255
22.4639 3.6694 2.1841 100 150 255
22.4886 3.6833 2.1841 100 150 255
22.5132 3.6973 2.1841 100 150 255
22.5379 3.7113 2.1841 100 150 255
22.5625 3.7252 2.1841 100 150 255
22.5872 3.7392 2.1841 100 150 255
22.6118 3.7532 2.1841 100 150 255
22.6365 3.7671 2.1841 100 150 255
22.6611 3.7811 2.1841 100 150 255
22.6858 3.7950 2.1841 100 150 255
22.7104 3.8090 2.1841 100 150 255
22.7351 3.8230 2.1841 100 150 255
22.7597 3.8369 2.1841 100 150 255
22.7844 3.8509 2.1841 100 150 255
22.8090 3.8649 2.1841 100 150 255
22.8336 3.8788 2.1841 100 150 255
22.8583 3.8928 2.1841 100 150 255
22.8829 3.9068 2.1841 100 150 255
22.9076 3.9207 2.1841 100 150 255
22.9322 3.9347 2.1841 100 150 255
22.9569 3.9487 2.1841 100 150 255
22.9815 3.9626 2.1841 100 150 255
23.0062 3.9766 2.1841 100 150 255
23.0308 3.9905 2.1841 100 150 255
23.0555 4.0045 2.1841 100 150 255
23.0801 4.0185 2.1841 100 150 255
23.1048 4.0324 2.1841 100 150 255
23.1294 4.0464 2.1841 100 150 255
23.1541 4.0604 2.1841 100 150 255
23.1787 4.0743 2.1841 100 150 255
23.2034 4.0883 2.1841 100 150 255
23.2280 4.1023 2.1841 100 150 255
23.2527 4.1162 2.1841 100 150 255
23.2773 4.1302 2.1841 100 150 255
23.3019 4.1442 2.1841 100 150 255
23.3266 4.1581 2.1841 100 150 255
23.3512 4.1721 2.1841 100 150 255
23.3759 4.1861 2.1841 100 150 255
23.4005 4.2000 2.1841 100 150 255
23.4252 4.2140 2.1841 100 150 255
23.4498 4.2279 2.1841 100 150 255
23.4745 4.2419 2.1841 100 150 255
23.4991 4.2559 2.1841 100 150 255
23.5238 4.2698 2.1841 100 150 255
23.5484 4.2838 2.1841 100 150 255
23.5731 4.2978 2.1841 100 150 255
23.5977 4.3117 2.1841 100 150 255
23.6224 4.3257 2.1841 100 150 255
23.6470 4.3397 2.1841 100 150 255
23.6717 4.3536 2.1841 100 150 255
23.6963 4.3676 2.1841 100 150 255
23.7210 4.3816 2.1841 100 150 255
23.7456 4.3955 2.1841 100 150 255
23.7702 4.4095 2.1841 100 150 255
23.7949 4.4234 2.1841 100 150 255
23.8195 4.4374 2.1841 100 150 255
23.8442 4.4514 2.1841 100 150 255
23.8688 4.4653 2.1841 100 150 255
23.8935 4.4793 2.1841 100 150 255
23.9181 4.4933 2.1841 100 150 255
23.9428 4.5072 2.1841 100 150 255
23.9674 4.5212 2.1841 100 150 255
23.9921 4.5352 2.1841 100 150 255
24.0167 4.5491 2.1841 100 150 255
24.0414 4.5631 2.1841 100 150 255
24.0660 4.5771 2.1841 100 150 255
24.0907 4.5910 2.1841 100 150 255
24.1153 4.6050 2.1841 100 150 255
24.1400 4.6189 2.1841 100 150 255
24.1646 4.6329 2.1841 100 150 255
24.1893 4.6469 2.1841 100 150 255
24.2139 4.6608 2.1841 100 150 255
24.2385 4.6748 2.1841 100 150 255
24.2632 4.6888 2.1841 100 150 255
24.2878 4.7027 2.1841 100 150 255
24.3125 4.7167 2.1841 100 150 255
24.3371 4.7307 2.1841 100 150 255
24.3618 4.7446 2.1841 100 150 255
24.3864 4.7586 2.1841 100 150 255
24.4111 4.7726 2.1841 100 150 255
24.4357 4.7865 2.1841 100 150 255
24.4604 4.8005 2.1841 100 150 255
24.4850 4.8144 2.1841 100 150 255
24.5097 4.8284 2.1841 100 150 255
24.5343 4.8424 2.1841 100 150 255
24.5590 4.8563 2.1841 100 150 255
24.5836 4.8703 2.1841 100 150 255
24.6083 4.8843 2.1841 100 150 255
24.6329 4.8982 2.1841 100 150 255
24.6576 4.9122 2.1841 100 150 255
24.6822 4.9262 2.1841 100 150 255
24.7068 4.9401 2.1841 100 150 255
24.7315 4.9541 2.1841 100 150 255
24.7561 4.9681 2.1841 100 150 255
24.7808 4.9820 2.1841 100 150 255
24.8054 4.9960 2.1841 100 150 255
24.8301 5.0099 2.1841 100 150 255
24.8547 5.0239 2.1841 100 150 255
24.8794 5.0379 2.1841 100 150 255
24.9040 5.0518 2.1841 100 150 255
24.9287 5.0658 2.1841 100 150 255
24.9533 5.0798 2.1841 100 150 255
24.9780 5.0937 2.1841 100 150 255
25.0026 5.1077 2.1841 100 150 255
25.0273 5.1217 2.1841 100 150 255
25.0273 5.1217 2.1841 100 150 255
25.0218 5.1314 2.1841 100 150 255
25.0163 5.1411 2.1841 100 150 255
25.0107 5.1508 2.1841 100 150 255
25.0052 5.1605 2.1841 100 150 255
24.9997 5.1702 2.1841 100 150 255
24.9942 5.1800 2.1841 100 150 255
24.9887 5.1897 2.1841 100 150 255
24.9832 5.1994 2.1841 100 150 255
24.9777 5.2091 2.1841 100 150 255
24.9722 5.2188 2.1841 100 150 255
24.9667 5.2285 2.1841 100 150 255
24.9612 5.2383 2.1841 100 150 255
24.9557 5.2480 2.1841 100 150 255
24.9502 5.2577 2.1841 100 150 255
24.9447 5.2674 2.1841 100 150 255
24.9392 5.2771 2.1841 100 150 255
24.9337 5.2869 2.1841 100 150 255
24.9282 5.2966 2.1841 100 150 255
24.9227 5.3063 2.1841 100 150 255
24.9172 5.3160 2.1841 100 150 255
24.9117 5.3257 2.1841 100 150 255
24.9061 5.3354 2.1841 100 150 255
24.9006 5.3452 2.1841 100 150 255
24.8951 5.3549 2.1841 100 150 255
24.8896 5.3646 2.1841 100 150 255
24.8841 5.3743 2.1841 100 150 255
24.8786 5.3840 2.1841 100 150 255
24.8731 5.3937 2.1841 100 150 255
24.8676 5.4035 2.1841 100 150 255
24.8621 5.4132 2.1841 100 150 255
24.8566 5.4229 2.1841 100 150 255
24.8511 5.4326 2.1841 100 150 255
24.8456 5.4423 2.1841 100 150 255
24.8401 5.4520 2.1841 100 150 255
24.8346 5.4618 2.1841 100 150 255
24.8291 5.4715 2.1841 100 150 255
24.8236 5.4812 2.1841 100 150 255
24.8181 5.4909 2.1841 100 150 255
24.8126 5.5006 2.1841 100 150 255
24.8071 5.5103 2.1841 100 150 255
24.8015 5.5201 2.1841 100 150 255
24.7960 5.5298 2.1841 100 150 255
24.7905 5.5395 2.1841 100 150 255
24.7850 5.5492 2.1841 100 150 255
24.7795 5.5589 2.1841 100 150 255
24.7740 5.5686 2.1841 100 150 255
24.7685 5.5784 2.1841 100 150 255
24.7630 5.5881 2.1841 100 150 255
24.7575 5.5978 2.1841 100 150 255
24.7520 5.6075 2.1841 100 150 255
24.7465 5.6172 2.1841 100 150 255
24.7410 5.6269 2.1841 100 150 255
24.7355 5.6367 2.1841 100 150 255
24.7300 5.6464 2.1841 100 150 255
24.7245 5.6561 2.1841 100 150 255
24.7190 5.6658 2.1841 100 150 255
24.7135 5.6755 2.1841 100 150 255
24.7080 5.6852 2.1841 100 150 255
24.7024 5.6950 2.1841 100 150 255
24.6969 5.7047 2.1841 100 150 255
24.6914 5.7144 2.1841 100 150 255
24.6859 5.7241 2.1841 100 150 255
24.6804 5.7338 2.1841 100 150 255
24.6749 5.7435 2.1841 100 150 255
24.6694 5.7533 2.1841 100 150 255
24.6639 5.7630 2.1841 100 150 255
24.6584 5.7727 2.1841 100 150 255
24.6529 5.7824 2.1841 100 150 255
24.6474 5.7921 2.1841 100 150 255
24.6419 5.8019 2.1841 100 150 255
24.6364 5.8116 2.1841 100 150 255
24.6309 5.8213 2.1841 100 150 255
24.6254 5.8310 2.1841 100 150 255
24.6199 5.8407 2.1841 100 150 255
24.6144 5.8504 2.1841 100 150 255
24.6089 5.8602 2.1841 100 150 255
24.6034 5.8699 2.1841 100 150 255
24.5978 5.8796 2.1841 100 150 255
24.5923 5.8893 2.1841 100 150 255
24.5868 5.8990 2.1841 100 150 255
24.5813 5.9087 2.1841 100 150 255
24.5758 5.9185 2.1841 100 150 255
24.5703 5.9282 2.1841 100 150 255
24.5648 5.9379 2.1841 100 150 255
24.5593 5.9476 2.1841 100 150 255
24.5538 5.9573 2.1841 100 150 255
24.5483 5.9670 2.1841 100 150 255
24.5428 5.9768 2.1841 100 150 255
24.5373 5.9865 2.1841 100 150 255
24.5318 5.9962 2.1841 100 150 255
24.5263 6.0059 2.1841 100 150 255
24.5208 6.0156 2.1841 100 150 255
24.5153 6.0253 2.1841 100 150 255
24.5098 6.0351 2.1841 100 150 255
24.5043 6.0448 2.1841 100 150 255
24.4988 6.0545 2.1841 100 150 255
24.4932 6.0642 2.1841 100 150 255
24.4877 6.0739 2.1841 100 150 255
24.4822 6.0836 2.1841 100 150 255
24.4767 6.0934 2.1841 100 150 255
24.4712 6.1031 2.1841 100 150 255
24.4657 6.1128 2.1841 100 150 255
24.4602 6.1225 2.1841 100 150 255
24.4547 6.1322 2.1841 100 150 255
24.4492 6.1419 2.1841 100 150 255
24.4437 6.1517 2.1841 100 150 255
24.4382 6.1614 2.1841 100 150 255
24.4327 6.1711 2.1841 100 150 255
24.4272 6.1808 2.1841 100 150 255
24.4217 6.1905 2.1841 100 150 255
24.4162 6.2002 2.1841 100 150 255
24.4107 6.2100 2.1841 100 150 255
24.4052 6.2197 2.1841 100 150 255
24.3997 6.2294 2.1841 100 150 255
24.3942 6.2391 2.1841 100 150 255
24.3886 6.2488 2.1841 100 150 255
24.3831 6.2586 2.1841 100 150 255
24.3776 6.2683 2.1841 100 150 255
24.3721 6.2780 2.1841 100 150 255
24.3666 6.2877 2.1841 100 150 255
24.3611 6.2974 2.1841 100 150 255
24.3556 6.3071 2.1841 100 150 255
24.3501 6.3169 2.1841 100 150 255
24.3446 6.3266 2.1841 100 150 255
24.3391 6.3363 2.1841 100 150 255
24.3336 6.3460 2.1841 100 150 255
24.3281 6.3557 2.1841 100 150 255
24.3226 6.3654 2.1841 100 150 255
24.3171 6.3752 2.1841 100 150 255
24.3116 6.3849 2.1841 100 150 255
24.3061 6.3946 2.1841 100 150 255
24.3006 6.4043 2.1841 100 150 255
24.2951 6.4140 2.1841 100 150 255
24.2896 6.4237 2.1841 100 150 255
24.2840 6.4335 2.1841 100 150 255
24.2785 6.4432 2.1841 100 150 255
24.2730 6.4529 2.1841 100 150 255
24.2675 6.4626 2.1841 100 150 255
24.2620 6.4723 2.1841 100 150 255
24.2565 6.4820 2.1841 100 150 255
24.2510 6.4918 2.1841 100 150 255
24.2455 6.5015 2.1841 100 150 255
24.2400 6.5112 2.1841 100 150 255
24.2345 6.5209 2.1841 100 150 255
24.2290 6.5306 2.1841 100 150 255
24.2235 6.5403 2.1841 100 150 255
24.2180 6.5501 2.1841 100 150 255
24.2125 6.5598 2.1841 100 150 255
24.2070 6.5695 2.1841 100 150 255
24.2015 6.5792 2.1841 100 150 255
24.1960 6.5889 2.1841 100 150 255
24.1905 6.5986 2.1841 100 150 255
24.1849 6.6084 2.1841 100 150 255
24.1794 6.6181 2.1841 100 150 255
24.1739 6.6278 2.1841 100 150 255
24.1684 6.6375 2.1841 100 150 255
24.1629 6.6472 2.1841 100 150 255
24.1574 6.6569 2.1841 100 150 255
24.1519 6.6667 2.1841 100 150 255
24.1464 6.6764 2.1841 100 150 255
24.1409 6.6861 2.1841 100 150 255
24.1354 6.6958 2.1841 100 150 255
24.1299 6.7055 2.1841 100 150 255
24.1244 6.7152 2.1841 100 150 255
24.1189 6.7250 2.1841 100 150 255
24.1189 6.7250 2.1841 100 150 255
24.0942 6.7110 2.1841 100 150 255
24.0696 6.6970 2.1841 100 150 255
24.0449 6.6831 2.1841 100 150 255
24.0203 6.6691 2.1841 100 150 255
23.9956 6.6551 2.1841 100 150 255
23.9710 6.6412 2.1841 100 150 255
23.9464 6.6272 2.1841 100 150 255
23.9217 6.6133 2.1841 100 150 255
23.8971 6.5993 2.1841 100 150 255
23.8724 6.5853 2.1841 100 150 255
23.8478 6.5714 2.1841 100 150 255
23.8231 6.5574 2.1841 100 150 255
23.7985 6.5434 2.1841 100 150 255
23.7738 6.5295 2.1841 100 150 255
23.7492 6.5155 2.1841 100 150 255
23.7245 6.5015 2.1841 100 150 255
23.6999 6.4876 2.1841 100 150 255
23.6752 6.4736 2.1841 100 150 255
23.6506 6.4596 2.1841 100 150 255
23.6259 6.4457 2.1841 100 150 255
23.6013 6.4317 2.1841 100 150 255
23.5766 6.4177 2.1841 100 150 255
23.5520 6.4038 2.1841 100 150 255
23.5273 6.3898 2.1841 100 150 255
23.5027 6.3759 2.1841 100 150 255
23.4781 6.3619 2.1841 100 150 255
23.4534 6.3479 2.1841 100 150 255
23.4288 6.3340 2.1841 100 150 255
23.4041 6.3200 2.1841 100 150 255
23.3795 6.3060 2.1841 100 150 255
23.3548 6.2921 2.1841 100 150 255
23.3302 6.2781 2.1841 100 150 255
23.3055 6.2641 2.1841 100 150 255
23.2809 6.2502 2.1841 100 150 255
23.2562 6.2362 2.1841 100 150 255
23.2316 6.2222 2.1841 100 150 255
23.2069 6.2083 2.1841 100 150 255
23.1823 6.1943 2.1841 100 150 255
23.1576 6.1804 2.1841 100 150 255
23.1330 6.1664 2.1841 100 150 255
23.1083 6.1524 2.1841 100 150 255
23.0837 6.1385 2.1841 100 150 255
23.0590 6.1245 2.1841 100 150 255
23.0344 6.1105 2.1841 100 150 255
23.0098 6.0966 2.1841 100 150 255
22.9851 6.0826 2.1841 100 150 255
22.9605 6.0686 2.1841 100 150 255
22.9358 6.0547 2.1841 100 150 255
22.9112 6.0407 2.1841 100 150 255
22.8865 6.0267 2.1841 100 150 255
22.8619 6.0128 2.1841 100 150 255
22.8372 5.9988 2.1841 100 150 255
22.8126 5.9849 2.1841 100 150 255
22.7879 5.9709 2.1841 100 150 255
22.7633 5.9569 2.1841 100 150 255
22.7386 5.9430 2.1841 100 150 255
22.7140 5.9290 2.1841 100 150 255
22.6893 5.9150 2.1841 100 150 255
22.6647 5.9011 2.1841 100 150 255
22.6400 5.8871 2.1841 100 150 255
22.6154 5.8731 2.1841 100 150 255
22.5907 5.8592 2.1841 100 150 255
22.5661 5.8452 2.1841 100 150 255
22.5415 5.8312 2.1841 100 150 255
22.5168 5.8173 2.1841 100 150 255
22.4922 5.8033 2.1841 100 150 255
22.4675 5.7894 2.1841 100 150 255
22.4429 5.7754 2.1841 100 150 255
22.4182 5.7614 2.1841 100 150 255
22.3936 5.7475 2.1841 100 150 255
22.3689 5.7335 2.1841 100 150 255
22.3443 5.7195 2.1841 100 150 255
22.3196 5.7056 2.1841 100 150 255
22.2950 5.6916 2.1841 100 150 255
22.2703 5.6776 2.1841 100 150 255
22.2457 5.6637 2.1841 100 150 255
22.2210 5.6497 2.1841 100 150 255
22.1964 5.6357 2.1841 100 150 255
22.1717 5.6218 2.1841 100 150 255
22.1471 5.6078 2.1841 100 150 255
22.1224 5.5939 2.1841 100 150 255
22.0978 5.5799 2.1841 100 150 255
22.0732 5.5659 2.1841 100 150 255
22.0485 5.5520 2.1841 100 150 255
22.0239 5.5380 2.1841 100 150 255
21.9992 5.5240 2.1841 100 150 255
21.9746 5.5101 2.1841 100 150 255
21.9499 5.4961 2.1841 100 150 255
21.9253 5.4821 2.1841 100 150 255
21.9006 5.4682 2.1841 100 150 255
21.8760 5.4542 2.1841 100 150 255
21.8513 5.4402 2.1841 100 150 255
21.8267 5.4263 2.1841 100 150 255
21.8020 5.4123 2.1841 100 150 255
21.7774 5.3984 2.1841 100 150 255
21.7527 5.3844 2.1841 100 150 255
21.7281 5.3704 2.1841 100 150 255
21.7034 5.3565 2.1841 100 150 255
21.6788 5.3425 2.1841 100 150 255
21.6542 5.3285 2.1841 100 150 255
21.6295 5.3146 2.1841 100 150 255
21.6049 5.3006 2.1841 100 150 255
21.5802 5.2866 2.1841 100 150 255
21.5556 5.2727 2.1841 100 150 255
21.5309 5.2587 2.1841 100 150 255
21.5063 5.2447 2.1841 100 150 255
21.4816 5.2308 2.1841 100 150 255
21.4570 5.2168 2.1841 100 150 255
21.4323 5.2029 2.1841 100 150 255
21.4077 5.1889 2.1841 100 150 255
21.3830 5.1749 2.1841 100 150 255
21.3584 5.1610 2.1841 100 150 255
21.3337 5.1470 2.1841 100 150 255
21.3091 5.1330 2.1841 100 150 255
21.2844 5.1191 2.1841 100 150 255
21.2598 5.1051 2.1841 100 150 255
21.2351 5.0911 2.1841 100 150 255
21.2105 5.0772 2.1841 100 150 255
21.1859 5.0632 2.1841 100 150 255
21.1612 5.0492 2.1841 100 150 255
21.1366 5.0353 2.1841 100 150 255
21.1119 5.0213 2.1841 100 150 255
21.0873 5.0073 2.1841 100 150 255
21.0626 4.9934 2.1841 100 150 255
21.0380 4.9794 2.1841 100 150 255
21.0133 4.9655 2.1841 100 150 255
20.9887 4.9515 2.1841 100 150 255
20.9640 4.9375 2.1841 100 150 255
20.9394 4.9236 2.1841 100 150 255
20.9147 4.9096 2.1841 100 150 255
20.8901 4.8956 2.1841 100 150 255
20.8654 4.8817 2.1841 100 150 255
20.8408 4.8677 2.1841 100 150 255
20.8161 4.8537 2.1841 100 150 255
20.7915 4.8398 2.1841 100 150 255
20.7668 4.8258 2.1841 100 150 255
20.7422 4.8118 2.1841 100 150 255
20.7176 4.7979 2.1841 100 150 255
20.6929 4.7839 2.1841 100 150 255
20.6683 4.7700 2.1841 100 150 255
20.6436 4.7560 2.1841 100 150 255
20.6190 4.7420 2.1841 100 150 255
20.5943 4.7281 2.1841 100 150 255
20.5697 4.7141 2.1841 100 150 255
20.5450 4.7001 2.1841 100 150 255
20.5204 4.6862 2.1841 100 150 255
20.4957 4.6722 2.1841 100 150 255
20.4711 4.6582 2.1841 100 150 255
20.4464 4.6443 2.1841 100 150 255
20.4218 4.6303 2.1841 100 150 255
20.3971 4.6163 2.1841 100 150 255
20.3725 4.6024 2.1841 100 150 255
20.3478 4.5884 2.1841 100 150 255
20.3232 4.5745 2.1841 100 150 255
20.2985 4.5605 2.1841 100 150 255
20.2739 4.5465 2.1841 100 150 255
20.2493 4.5326 2.1841 100 150 255
20.2246 4.5186 2.1841 100 150 255
20.2000 4.5046 2.1841 100 150 255
20.1753 4.4907 2.1841 100 150 255
20.1507 4.4767 2.1841 100 150 255
20.1260 4.4627 2.1841 100 150 255
20.1014 4.4488 2.1841 100 150 255
20.0767 4.4348 2.1841 100 150 255
20.0521 4.4208 2.1841 100 150 255
20.0521 4.4208 2.1841 100 150 255
20.0576 4.4111 2.1841 100 150 255
20.0631 4.4014 2.1841 100 150 255
20.0686 4.3917 2.1841 100 150 255
20.0741 4.3820 2.1841 100 150 255
20.0796 4.3723 2.1841 100 150 255
20.0851 4.3625 2.1841 100 150 255
20.0906 4.3528 2.1841 100 150 255
20.0961 4.3431 2.1841 100 150 255
20.1016 4.3334 2.1841 100 150 255
20.1071 4.3237 2.1841 100 150 255
20.1126 4.3140 2.1841 100 150 255
20.1181 4.3042 2.1841 100 150 255
20.1236 4.2945 2.1841 100 150 255
20.1291 4.2848 2.1841 100 150 255
20.1347 4.2751 2.1841 100 150 255
20.1402 4.2654 2.1841 100 150 255
20.1457 4.2557 2.1841 100 150 255
20.1512 4.2459 2.1841 100 150 255
20.1567 4.2362 2.1841 100 150 255
20.1622 4.2265 2.1841 100 150 255
20.1677 4.2168 2.1841 100 150 255
20.1732 4.2071 2.1841 100 150 255
20.1787 4.1974 2.1841 100 150 255
20.1842 4.1876 2.1841 100 150 255
20.1897 4.1779 2.1841 100 150 255
20.1952 4.1682 2.1841 100 150 255
20.2007 4.1585 2.1841 100 150 255
20.2062 4.1488 2.1841 100 150 255
20.2117 4.1391 2.1841 100 150 255
20.2172 4.1293 2.1841 100 150 255
20.2227 4.1196 2.1841 100 150 255
20.2282 4.1099 2.1841 100 150 255
20.2337 4.1002 2.1841 100 150 255
20.2393 4.0905 2.1841 100 150 255
20.2448 4.0808 2.1841 100 150 255
20.2503 4.0710 2.1841 100 150 255
20.2558 4.0613 2.1841 100 150 255
20.2613 4.0516 2.1841 100 150 255
20.2668 4.0419 2.1841 100 150 255
20.2723 4.0322 2.1841 100 150 255
20.2778 4.0224 2.1841 100 150 255
20.2833 4.0127 2.1841 100 150 255
20.2888 4.0030 2.1841 100 150 255
20.2943 3.9933 2.1841 100 150 255
20.2998 3.9836 2.1841 100 150 255
20.3053 3.9739 2.1841 100 150 255
20.3108 3.9641 2.1841 100 150 255
20.3163 3.9544 2.1841 100 150 255
20.3218 3.9447 2.1841 100 150 255
20.3273 3.9350 2.1841 100 150 255
20.3328 3.9253 2.1841 100 150 255
20.3383 3.9156 2.1841 100 150 255
20.3439 3.9058 2.1841 100 150 255
20.3494 3.8961 2.1841 100 150 255
20.3549 3.8864 2.1841 100 150 255
20.3604 3.8767 2.1841 100 150 255
20.3659 3.8670 2.1841 100 150 255
20.3714 3.8573 2.1841 100 150 255
20.3769 3.8475 2.1841 100 150 255
20.3824 3.8378 2.1841 100 150 255
20.3879 3.8281 2.1841 100 150 255
20.3934 3.8184 2.1841 100 150 255
20.3989 3.8087 2.1841 100 150 255
20.4044 3.7990 2.1841 100 150 255
20.4099 3.7892 2.1841 100 150 255
20.4154 3.7795 2.1841 100 150 255
20.4209 3.7698 2.1841 100 150 255
20.4264 3.7601 2.1841 100 150 255
20.4319 3.7504 2.1841 100 150 255
20.4374 3.7407 2.1841 100 150 255
20.4429 3.7309 2.1841 100 150 255
20.4485 3.7212 2.1841 100 150 255
20.4540 3.7115 2.1841 100 150 255
20.4595 3.7018 2.1841 100 150 255
20.4650 3.6921 2.1841 100 150 255
20.4705 3.6824 2.1841 100 150 255
20.4760 3.6726 2.1841 100 150 255
20.4815 3.6629 2.1841 100 150 255
20.4870 3.6532 2.1841 100 150 255
20.4925 3.6435 2.1841 100 150 255
20.4980 3.6338 2.1841 100 150 255
20.5035 3.6241 2.1841 100 150 255
20.5090 3.6143 2.1841 100 150 255
20.5145 3.6046 2.1841 100 150 255
20.5200 3.5949 2.1841 100 150 255
20.5255 3.5852 2.1841 100 150 255
20.5310 3.5755 2.1841 100 150 255
20.5365 3.5658 2.1841 100 150 255
20.5420 3.5560 2.1841 100 150 255
20.5475 3.5463 2.1841 100 150 255
20.5531 3.5366 2.1841 100 150 255
20.5586 3.5269 2.1841 100 150 255
20.5641 3.5172 2.1841 100 150 255
20.5696 3.5074 2.1841 100 150 255
20.5751 3.4977 2.1841 100 150 255
20.5806 3.4880 2.1841 100 150 255
20.5861 3.4783 2.1841 100 150 255
20.5916 3.4686 2.1841 100 150 255
20.5971 3.4589 2.1841 100 150 255
20.6026 3.4491 2.1841 100 150 255
20.6081 3.4394 2.1841 100 150 255
20.6136 3.4297 2.1841 100 150 255
20.6191 3.4200 2.1841 100 150 255
20.6246 3.4103 2.1841 100 150 255
20.6301 3.4006 2.1841 100 150 255
20.6356 3.3908 2.1841 100 150 255
20.6411 3.3811 2.1841 100 150 255
20.6466 3.3714 2.1841 100 150 255
20.6521 3.3617 2.1841 100 150 255
20.6577 3.3520 2.1841 100 150 255
20.6632 3.3423 2.1841 100 150 255
20.6687 3.3325 2.1841 100 150 255
20.6742 3.3228 2.1841 100 150 255
20.6797 3.3131 2.1841 100 150 255
20.6852 3.3034 2.1841 100 150 255
20.6907 3.2937 2.1841 100 150 255
20.6962 3.2840 2.1841 100 150 255
20.7017 3.2742 2.1841 100 150 255
20.7072 3.2645 2.1841 100 150 255
20.7127 3.2548 2.1841 100 150 255
20.7182 3.2451 2.1841 100 150 255
20.7237 3.2354 2.1841 100 150 255
20.7292 3.2257 2.1841 100 150 255
20.7347 3.2159 2.1841 100 150 255
20.7402 3.2062 2.1841 100 150 255
20.7457 3.1965 2.1841 100 150 255
20.7512 3.1868 2.1841 100 150 255
20.7568 3.1771 2.1841 100 150 255
20.7623 3.1674 2.1841 100 150 255
20.7678 3.1576 2.1841 100 150 255
20.7733 3.1479 2.1841 100 150 255
20.7788 3.1382 2.1841 100 150 255
20.7843 3.1285 2.1841 100 150 255
20.7898 3.1188 2.1841 100 150 255
20.7953 3.1091 2.1841 100 150 255
20.8008 3.0993 2.1841 100 150 255
20.8063 3.0896 2.1841 100 150 255
20.8118 3.0799 2.1841 100 150 255
20.8173 3.0702 2.1841 100 150 255
20.8228 3.0605 2.1841 100 150 255
20.8283 3.0508 2.1841 100 150 255
20.8338 3.0410 2.1841 100 150 255
20.8393 3.0313 2.1841 100 150 255
20.8448 3.0216 2.1841 100 150 255
20.8503 3.0119 2.1841 100 150 255
20.8558 3.0022 2.1841 100 150 255
20.8614 2.9924 2.1841 100 150 255
20.8669 2.9827 2.1841 100 150 255
20.8724 2.9730 2.1841 100 150 255
20.8779 2.9633 2.1841 100 150 255
20.8834 2.9536 2.1841 100 150 255
20.8889 2.9439 2.1841 100 150 255
20.8944 2.9341 2.1841 100 150 255
20.8999 2.9244 2.1841 100 150 255
20.9054 2.9147 2.1841 100 150 255
20.9109 2.9050 2.1841 100 150 255
20.9164 2.8953 2.1841 100 150 255
20.9219 2.8856 2.1841 100 150 255
20.9274 2.8758 2.1841 100 150 255
20.9329 2.8661 2.1841 100 150 255
20.9384 2.8564 2.1841 100 150 255
20.9439 2.8467 2.1841 100 150 255
20.9494 2.8370 2.1841 100 150 255
20.9549 2.8273 2.1841 100 150 255
20.9604 2.8175 2.1841 100 150 255
20.9604 2.8175 0.1473 100 150 255
20.9604 2.8175 0.1596 100 150 255
20.9604 2.8175 0.1720 100 150 255
20.9604 2.8175 0.1843 100 150 255
20.9604 2.8175 0.1967 100 150 255
20.9604 2.8175 0.2090 100 150 255
20.9604 2.8175 0.2214 100 150 255
20.9604 2.8175 0.2337 100 150 255
20.9604 2.8175 0.2460 100 150 255
20.9604 2.8175 0.2584 100 150 255
20.9604 2.8175 0.2707 100 150 255
20.9604 2.8175 0.2831 100 150 255
20.9604 2.8175 0.2954 100 150 255
20.9604 2.8175 0.3078 100 150 255
20.9604 2.8175 0.3201 100 150 255
20.9604 2.8175 0.3325 100 150 255
20.9604 2.8175 0.3448 100 150 255
20.9604 2.8175 0.3571 100 150 255
20.9604 2.8175 0.3695 100 150 255
20.9604 2.8175 0.3818 100 150 255
20.9604 2.8175 0.3942 100 150 255
20.9604 2.8175 0.4065 100 150 255
20.9604 2.8175 0.4189 100 150 255
20.9604 2.8175 0.4312 100 150 255
20.9604 2.8175 0.4436 100 150 255
20.9604 2.8175 0.4559 100 150 255
20.9604 2.8175 0.4682 100 150 255
20.9604 2.8175 0.4806 100 150 255
20.9604 2.8175 0.4929 100 150 255
20.9604 2.8175 0.5053 100 150 255
20.9604 2.8175 0.5176 100 150 255
20.9604 2.8175 0.5300 100 150 255
20.9604 2.8175 0.5423 100 150 255
20.9604 2.8175 0.5547 100 150 255
20.9604 2.8175 0.5670 100 150 255
20.9604 2.8175 0.5793 100 150 255
20.9604 2.8175 0.5917 100 150 255
20.9604 2.8175 0.6040 100 150 255
20.9604 2.8175 0.6164 100 150 255
20.9604 2.8175 0.6287 100 150 255
20.9604 2.8175 0.6411 100 150 255
20.9604 2.8175 0.6534 100 150 255
20.9604 2.8175 0.6658 100 150 255
20.9604 2.8175 0.6781 100 150 255
20.9604 2.8175 0.6904 100 150 255
20.9604 2.8175 0.7028 100 150 255
20.9604 2.8175 0.7151 100 150 255
20.9604 2.8175 0.7275 100 150 255
20.9604 2.8175 0.7398 100 150 255
20.9604 2.8175 0.7522 100 150 255
20.9604 2.8175 0.7645 100 150 255
20.9604 2.8175 0.7769 100 150 255
20.9604 2.8175 0.7892 100 150 255
20.9604 2.8175 0.8015 100 150 255
20.9604 2.8175 0.8139 100 150 255
20.9604 2.8175 0.8262 100 150 255
20.9604 2.8175 0.8386 100 150 255
20.9604 2.8175 0.8509 100 150 255
20.9604 2.8175 0.8633 100 150 255
20.9604 2.8175 0.8756 100 150 255
20.9604 2.8175 0.8880 100 150 255
20.9604 2.8175 0.9003 100 150 255
20.9604 2.8175 0.9127 100 150 255
20.9604 2.8175 0.9250 100 150 255
20.9604 2.8175 0.9373 100 150 255
20.9604 2.8175 0.9497 100 150 255
20.9604 2.8175 0.9620 100 150 255
20.9604 2.8175 0.9744 100 150 255
20.9604 2.8175 0.9867 100 150 255
20.9604 2.8175 0.9991 100 150 255
20.9604 2.8175 1.0114 100 150 255
20.9604 2.8175 1.0238 100 150 255
20.9604 2.8175 1.0361 100 150 255
20.9604 2.8175 1.0484 100 150 255
20.9604 2.8175 1.0608 100 150 255
20.9604 2.8175 1.0731 100 150 255
20.9604 2.8175 1.0855 100 150 255
20.9604 2.8175 1.0978 100 150 255
20.9604 2.8175 1.1102 100 150 255
20.9604 2.8175 1.1225 100 150 255
20.9604 2.8175 1.1349 100 150 255
20.9604 2.8175 1.1472 100 150 255
20.9604 2.8175 1.1595 100 150 255
20.9604 2.8175 1.1719 100 150 255
20.9604 2.8175 1.1842 100 150 255
20.9604 2.8175 1.1966 100 150 255
20.9604 2.8175 1.2089 100 150 255
20.9604 2.8175 1.2213 100 150 255
20.9604 2.8175 1.2336 100 150 255
20.9604 2.8175 1.2460 100 150 255
20.9604 2.8175 1.2583 100 150 255
20.9604 2.8175 1.2706 100 150 255
20.9604 2.8175 1.2830 100 150 255
20.9604 2.8175 1.2953 100 150 255
20.9604 2.8175 1.3077 100 150 255
20.9604 2.8175 1.3200 100 150 255
20.9604 2.8175 1.3324 100 150 255
20.9604 2.8175 1.3447 100 150 255
20.9604 2.8175 1.3571 100 150 255
20.9604 2.8175 1.3694 100 150 255
20.9604 2.8175 1.3817 100 150 255
20.9604 2.8175 1.3941 100 150 255
20.9604 2.8175 1.4064 100 150 255
20.9604 2.8175 1.4188 100 150 255
20.9604 2.8175 1.4311 100 150 255
20.9604 2.8175 1.4435 100 150 255
20.9604 2.8175 1.4558 100 150 255
20.9604 2.8175 1.4682 100 150 255
20.9604 2.8175 1.4805 100 150 255
20.9604 2.8175 1.4928 100 150 255
20.9604 2.8175 1.5052 100 150 255
20.9604 2.8175 1.5175 100 150 255
20.9604 2.8175 1.5299 100 150 255
20.9604 2.8175 1.5422 100 150 255
20.9604 2.8175 1.5546 100 150 255
20.9604 2.8175 1.5669 100 150 255
20.9604 2.8175 1.5793 100 150 255
20.9604 2.8175 1.5916 100 150 255
20.9604 2.8175 1.6039 100 150 255
20.9604 2.8175 1.6163 100 150 255
20.9604 2.8175 1.6286 100 150 255
20.9604 2.8175 1.6410 100 150 255
20.9604 2.8175 1.6533 100 150 255
20.9604 2.8175 1.6657 100 150 255
20.9604 2.8175 1.6780 100 150 255
20.9604 2.8175 1.6904 100 150 255
20.9604 2.8175 1.7027 100 150 255
20.9604 2.8175 1.7150 100 150 255
20.9604 2.8175 1.7274 100 150 255
20.9604 2.8175 1.7397 100 150 255
20.9604 2.8175 1.7521 100 150 255
20.9604 2.8175 1.7644 100 150 255
20.9604 2.8175 1.7768 100 150 255
20.9604 2.8175 1.7891 100 150 255
20.9604 2.8175 1.8015 100 150 255
20.9604 2.8175 1.8138 100 150 255
20.9604 2.8175 1.8261 100 150 255
20.9604 2.8175 1.8385 100 150 255
20.9604 2.8175 1.8508 100 150 255
20.9604 2.8175 1.8632 100 150 255
20.9604 2.8175 1.8755 100 150 255
20.9604 2.8175 1.8879 100 150 255
20.9604 2.8175 1.9002 100 150 255
20.9604 2.8175 1.9126 100 150 255
20.9604 2.8175 1.9249 100 150 255
20.9604 2.8175 1.9372 100 150 255
20.9604 2.8175 1.9496 100 150 255
20.9604 2.8175 1.9619 100 150 255
20.9604 2.8175 1.9743 100 150 255
20.9604 2.8175 1.9866 100 150 255
20.9604 2.8175 1.9990 100 150 255
20.9604 2.8175 2.0113 100 150 255
20.9604 2.8175 2.0237 100 150 255
20.9604 2.8175 2.0360 100 150 255
20.9604 2.8175 2.0483 100 150 255
20.9604 2.8175 2.0607 100 150 255
20.9604 2.8175 2.0730 100 150 255
20.9604 2.8175 2.0854 100 150 255
20.9604 2.8175 2.0977 100 150 255
20.9604 2.8175 2.1101 100 150 255
20.9604 2.8175 2.1224 100 150 255
20.9604 2.8175 2.1348 100 150 255
20.9604 2.8175 2.1471 100 150 255
20.9604 2.8175 2.1594 100 150 255
20.9604 2.8175 2.1718 100 150 255
20.9604 2.8175 2.1841 100 150 255
25.0273 5.1217 0.1473 100 150 255
25.0273 5.1217 0.1596 100 150 255
25.0273 5.1217 0.1720 100 150 255
25.0273 5.1217 0.1843 100 150 255
25.0273 5.1217 0.1967 100 150 255
25.0273 5.1217 0.2090 100 150 255
25.0273 5.1217 0.2214 100 150 255
25.0273 5.1217 0.2337 100 150 255
25.0273 5.1217 0.2460 100 150 255
25.0273 5.1217 0.2584 100 150 255
25.0273 5.1217 0.2707 100 150 255
25.0273 5.1217 0.2831 100 150 255
25.0273 5.1217 0.2954 100 150 255
25.0273 5.1217 0.3078 100 150 255
25.0273 5.1217 0.3201 100 150 255
25.0273 5.1217 0.3325 100 150 255
25.0273 5.1217 0.3448 100 150 255
25.0273 5.1217 0.3571 100 150 255
25.0273 5.1217 0.3695 100 150 255
25.0273 5.1217 0.3818 100 150 255
25.0273 5.1217 0.3942 100 150 255
25.0273 5.1217 0.4065 100 150 255
25.0273 5.1217 0.4189 100 150 255
25.0273 5.1217 0.4312 100 150 255
25.0273 5.1217 0.4436 100 150 255
25.0273 5.1217 0.4559 100 150 255
25.0273 5.1217 0.4682 100 150 255
25.0273 5.1217 0.4806 100 150 255
25.0273 5.1217 0.4929 100 150 255
25.0273 5.1217 0.5053 100 150 255
25.0273 5.1217 0.5176 100 150 255
25.0273 5.1217 0.5300 100 150 255
25.0273 5.1217 0.5423 100 150 255
25.0273 5.1217 0.5547 100 150 255
25.0273 5.1217 0.5670 100 150 255
25.0273 5.1217 0.5793 100 150 255
25.0273 5.1217 0.5917 100 150 255
25.0273 5.1217 0.6040 100 150 255
25.0273 5.1217 0.6164 100 150 255
25.0273 5.1217 0.6287 100 150 255
25.0273 5.1217 0.6411 100 150 255
25.0273 5.1217 0.6534 100 150 255
25.0273 5.1217 0.6658 100 150 255
25.0273 5.1217 0.6781 100 150 255
25.0273 5.1217 0.6904 100 150 255
25.0273 5.1217 0.7028 100 150 255
25.0273 5.1217 0.7151 100 150 255
25.0273 5.1217 0.7275 100 150 255
25.0273 5.1217 0.7398 100 150 255
25.0273 5.1217 0.7522 100 150 255
25.0273 5.1217 0.7645 100 150 255
25.0273 5.1217 0.7769 100 150 255
25.0273 5.1217 0.7892 100 150 255
25.0273 5.1217 0.8015 100 150 255
25.0273 5.1217 0.8139 100 150 255
25.0273 5.1217 0.8262 100 150 255
25.0273 5.1217 0.8386 100 150 255
25.0273 5.1217 0.8509 100 150 255
25.0273 5.1217 0.8633 100 150 255
25.0273 5.1217 0.8756 100 150 255
25.0273 5.1217 0.8880 100 150 255
25.0273 5.1217 0.9003 100 150 255
25.0273 5.1217 0.9127 100 150 255
25.0273 5.1217 0.9250 100 150 255
25.0273 5.1217 0.9373 100 150 255
25.0273 5.1217 0.9497 100 150 255
25.0273 5.1217 0.9620 100 150 255
25.0273 5.1217 0.9744 100 150 255
25.0273 5.1217 0.9867 100 150 255
25.0273 5.1217 0.9991 100 150 255
25.0273 5.1217 1.0114 100 150 255
25.0273 5.1217 1.0238 100 150 255
25.0273 5.1217 1.0361 100 150 255
25.0273 5.1217 1.0484 100 150 255
25.0273 5.1217 1.0608 100 150 255
25.0273 5.1217 1.0731 100 150 255
25.0273 5.1217 1.0855 100 150 255
25.0273 5.1217 1.0978 100 150 255
25.0273 5.1217 1.1102 100 150 255
25.0273 5.1217 1.1225 100 150 255
25.0273 5.1217 1.1349 100 150 255
25.0273 5.1217 1.1472 100 150 255
25.0273 5.1217 1.1595 100 150 255
25.0273 5.1217 1.1719 100 150 255
25.0273 5.1217 1.1842 100 150 255
25.0273 5.1217 1.1966 100 150 255
25.0273 5.1217 1.2089 100 150 255
25.0273 5.1217 1.2213 100 150 255
25.0273 5.1217 1.2336 100 150 255
25.0273 5.1217 1.2460 100 150 255
25.0273 5.1217 1.2583 100 150 255
25.0273 5.1217 1.2706 100 150 255
25.0273 5.1217 1.2830 100 150 255
25.0273 5.1217 1.2953 100 150 255
25.0273 5.1217 1.3077 100 150 255
25.0273 5.1217 1.3200 100 150 255
25.0273 5.1217 1.3324 100 150 255
25.0273 5.1217 1.3447 100 150 255
25.0273 5.1217 1.3571 100 150 255
25.0273 5.1217 1.3694 100 150 255
25.0273 5.1217 1.3817 100 150 255
25.0273 5.1217 1.3941 100 150 255
25.0273 5.1217 1.4064 100 150 255
25.0273 5.1217 1.4188 100 150 255
25.0273 5.1217 1.4311 100 150 255
25.0273 5.1217 1.4435 100 150 255
25.0273 5.1217 1.4558 100 150 255
25.0273 5.1217 1.4682 100 150 255
25.0273 5.1217 1.4805 100 150 255
25.0273 5.1217 1.4928 100 150 255
25.0273 5.1217 1.5052 100 150 255
25.0273 5.1217 1.5175 100 150 255
25.0273 5.1217 1.5299 100 150 255
25.0273 5.1217 1.5422 100 150 255
25.0273 5.1217 1.5546 100 150 255
25.0273 5.1217 1.5669 100 150 255
25.0273 5.1217 1.5793 100 150 255
25.0273 5.1217 1.5916 100 150 255
25.0273 5.1217 1.6039 100 150 255
25.0273 5.1217 1.6163 100 150 255
25.0273 5.1217 1.6286 100 150 255
25.0273 5.1217 1.6410 100 150 255
25.0273 5.1217 1.6533 100 150 255
25.0273 5.1217 1.6657 100 150 255
25.0273 5.1217 1.6780 100 150 255
25.0273 5.1217 1.6904 100 150 255
25.0273 5.1217 1.7027 100 150 255
25.0273 5.1217 1.7150 100 150 255
25.0273 5.1217 1.7274 100 150 255
25.0273 5.1217 1.7397 100 150 255
25.0273 5.1217 1.7521 100 150 255
25.0273 5.1217 1.7644 100 150 255
25.0273 5.1217 1.7768 100 150 255
25.0273 5.1217 1.7891 100 150 255
25.0273 5.1217 1.8015 100 150 255
25.0273 5.1217 1.8138 100 150 255
25.0273 5.1217 1.8261 100 150 255
25.0273 5.1217 1.8385 100 150 255
25.0273 5.1217 1.8508 100 150 255
25.0273 5.1217 1.8632 100 150 255
25.0273 5.1217 1.8755 100 150 255
25.0273 5.1217 1.8879 100 150 255
25.0273 5.1217 1.9002 100 150 255
25.0273 5.1217 1.9126 100 150 255
25.0273 5.1217 1.9249 100 150 255
25.0273 5.1217 1.9372 100 150 255
25.0273 5.1217 1.9496 100 150 255
25.0273 5.1217 1.9619 100 150 255
25.0273 5.1217 1.9743 100 150 255
25.0273 5.1217 1.9866 100 150 255
25.0273 5.1217 1.9990 100 150 255
25.0273 5.1217 2.0113 100 150 255
25.0273 5.1217 2.0237 100 150 255
25.0273 5.1217 2.0360 100 150 255
25.0273 5.1217 2.0483 100 150 255
25.0273 5.1217 2.0607 100 150 255
25.0273 5.1217 2.0730 100 150 255
25.0273 5.1217 2.0854 100 150 255
25.0273 5.1217 2.0977 100 150 255
25.0273 5.1217 2.1101 100 150 255
25.0273 5.1217 2.1224 100 150 255
25.0273 5.1217 2.1348 100 150 255
25.0273 5.1217 2.1471 100 150 255
25.0273 5.1217 2.1594 100 150 255
25.0273 5.1217 2.1718 100 150 255
25.0273 5.1217 2.1841 100 150 255
24.1189 6.7250 0.1473 100 150 255
24.1189 6.7250 0.1596 100 150 255
24.1189 6.7250 0.1720 100 150 255
24.1189 6.7250 0.1843 100 150 255
24.1189 6.7250 0.1967 100 150 255
24.1189 6.7250 0.2090 100 150 255
24.1189 6.7250 0.2214 100 150 255
24.1189 6.7250 0.2337 100 150 255
24.1189 6.7250 0.2460 100 150 255
24.1189 6.7250 0.2584 100 150 255
24.1189 6.7250 0.2707 100 150 255
24.1189 6.7250 0.2831 100 150 255
24.1189 6.7250 0.2954 100 150 255
24.1189 6.7250 0.3078 100 150 255
24.1189 6.7250 0.3201 100 150 255
24.1189 6.7250 0.3325 100 150 255
24.1189 6.7250 0.3448 100 150 255
24.1189 6.7250 0.3571 100 150 255
24.1189 6.7250 0.3695 100 150 255
24.1189 6.7250 0.3818 100 150 255
24.1189 6.7250 0.3942 100 150 255
24.1189 6.7250 0.4065 100 150 255
24.1189 6.7250 0.4189 100 150 255
24.1189 6.7250 0.4312 100 150 255
24.1189 6.7250 0.4436 100 150 255
24.1189 6.7250 0.4559 100 150 255
24.1189 6.7250 0.4682 100 150 255
24.1189 6.7250 0.4806 100 150 255
24.1189 6.7250 0.4929 100 150 255
24.1189 6.7250 0.5053 100 150 255
24.1189 6.7250 0.5176 100 150 255
24.1189 6.7250 0.5300 100 150 255
24.1189 6.7250 0.5423 100 150 255
24.1189 6.7250 0.5547 100 150 255
24.1189 6.7250 0.5670 100 150 255
24.1189 6.7250 0.5793 100 150 255
24.1189 6.7250 0.5917 100 150 255
24.1189 6.7250 0.6040 100 150 255
24.1189 6.7250 0.6164 100 150 255
24.1189 6.7250 0.6287 100 150 255
24.1189 6.7250 0.6411 100 150 255
24.1189 6.7250 0.6534 100 150 255
24.1189 6.7250 0.6658 100 150 255
24.1189 6.7250 0.6781 100 150 255
24.1189 6.7250 0.6904 100 150 255
24.1189 6.7250 0.7028 100 150 255
24.1189 6.7250 0.7151 100 150 255
