ply
format ascii 1.0
element vertex 1449
property float x
property float y
property float z
property uchar red
property uchar green
property uchar blue
end_header
34.3119 12.2352 1.0863 255 200 100
31.0552 13.7431 0.4002 255 200 100
34.0517 10.6312 1.0831 255 200 100
31.1737 11.5167 0.4014 255 200 100
33.9414 14.9096 0.2264 255 40 40
33.9374 14.9077 0.2264 255 40 40
33.9334 14.9058 0.2264 255 40 40
33.9295 14.9039 0.2264 255 40 40
33.9255 14.9020 0.2264 255 40 40
33.9215 14.9001 0.2264 255 40 40
33.9176 14.8982 0.2264 255 40 40
33.9136 14.8963 0.2264 255 40 40
33.9096 14.8945 0.2264 255 40 40
33.9057 14.8926 0.2264 255 40 40
33.9017 14.8907 0.2264 255 40 40
33.8977 14.8888 0.2264 255 40 40
33.8938 14.8869 0.2264 255 40 40
33.8898 14.8850 0.2264 255 40 40
33.8858 14.8831 0.2264 255 40 40
33.8819 14.8812 0.2264 255 40 40
33.8779 14.8793 0.2264 255 40 40
33.8739 14.8774 0.2264 255 40 40
33.8700 14.8755 0.2264 255 40 40
33.8660 14.8736 0.2264 255 40 40
33.8620 14.8717 0.2264 255 40 40
33.8581 14.8698 0.2264 255 40 40
33.8541 14.8679 0.2264 255 40 40
33.8501 14.8660 0.2264 255 40 40
33.8461 14.8641 0.2264 255 40 40
33.8422 14.8622 0.2264 255 40 40
33.8382 14.8603 0.2264 255 40 40
33.8342 14.8584 0.2264 255 40 40
33.8303 14.8565 0.2264 255 40 40
33.8263 14.8546 0.2264 255 40 40
33.8223 14.8527 0.2264 255 40 40
33.8184 14.8508 0.2264 255 40 40
33.8144 14.8489 0.2264 255 40 40
33.8104 14.8470 0.2264 255 40 40
33.8065 14.8451 0.2264 255 40 40
33.8025 14.8432 0.2264 255 40 40
33.7985 14.8413 0.2264 255 40 40
33.7946 14.8395 0.2264 255 40 40
33.7906 14.8376 0.2264 255 40 40
33.7866 14.8357 0.2264 255 40 40
33.7827 14.8338 0.2264 255 40 40
33.7787 14.8319 0.2264 255 40 40
33.7747 14.8300 0.2264 255 40 40
33.7708 14.8281 0.2264 255 40 40
33.7668 14.8262 0.2264 255 40 40
33.7628 14.8243 0.2264 255 40 40
33.7589 14.8224 0.2264 255 40 40
33.7549 14.8205 0.2264 255 40 40
33.7509 14.8186 0.2264 255 40 40
33.7470 14.8167 0.2264 255 40 40
33.7430 14.8148 0.2264 255 40 40
33.7390 14.8129 0.2264 255 40 40
33.7351 14.8110 0.2264 255 40 40
33.7311 14.8091 0.2264 255 40 40
33.7271 14.8072 0.2264 255 40 40
33.7232 14.8053 0.2264 255 40 40
33.7192 14.8034 0.2264 255 40 40
33.7152 14.8015 0.2264 255 40 40
33.7113 14.7996 0.2264 255 40 40
33.7073 14.7977 0.2264 255 40 40
33.7033 14.7958 0.2264 255 40 40
33.6993 14.7939 0.2264 255 40 40
33.6954 14.7920 0.2264 255 40 40
33.6914 14.7901 0.2264 255 40 40
33.6874 14.7882 0.2264 255 40 40
33.6835 14.7863 0.2264 255 40 40
33.6795 14.7845 0.2264 255 40 40
33.6755 14.7826 0.2264 255 40 40
33.6716 14.7807 0.2264 255 40 40
33.6676 14.7788 0.2264 255 40 40
33.6636 14.7769 0.2264 255 40 40
33.6597 14.7750 0.2264 255 40 40
33.6557 14.7731 0.2264 255 40 40
33.6517 14.7712 0.2264 255 40 40
33.6478 14.7693 0.2264 255 40 40
33.6438 14.7674 0.2264 255 40 40
33.6398 14.7655 0.2264 255 40 40
33.6359 14.7636 0.2264 255 40 40
33.6319 14.7617 0.2264 255 40 40
33.6279 14.7598 0.2264 255 40 40
33.6240 14.7579 0.2264 255 40 40
33.6200 14.7560 0.2264 255 40 40
33.6160 14.7541 0.2264 255 40 40
33.6121 14.7522 0.2264 255 40 40
33.6081 14.7503 0.2264 255 40 40
33.6041 14.7484 0.2264 255 40 40
33.6002 14.7465 0.2264 255 40 40
33.5962 14.7446 0.2264 255 40 40
33.5922 14.7427 0.2264 255 40 40
33.5883 14.7408 0.2264 255 40 40
33.5843 14.7389 0.2264 255 40 40
33.5803 14.7370 0.2264 255 40 40
33.5764 14.7351 0.2264 255 40 40
33.5724 14.7332 0.2264 255 40 40
33.5684 14.7313 0.2264 255 40 40
33.5644 14.7295 0.2264 255 40 40
33.5605 14.7276 0.2264 255 40 40
33.5565 14.7257 0.2264 255 40 40
33.5525 14.7238 0.2264 255 40 40
33.5486 14.7219 0.2264 255 40 40
33.5446 14.7200 0.2264 255 40 40
33.5406 14.7181 0.2264 255 40 40
33.5367 14.7162 0.2264 255 40 40
33.5327 14.7143 0.2264 255 40 40
33.5287 14.7124 0.2264 255 40 40
33.5248 14.7105 0.2264 255 40 40
33.5208 14.7086 0.2264 255 40 40
33.5168 14.7067 0.2264 255 40 40
33.5129 14.7048 0.2264 255 40 40
33.5089 14.7029 0.2264 255 40 40
33.5049 14.7010 0.2264 255 40 40
33.5010 14.6991 0.2264 255 40 40
33.4970 14.6972 0.2264 255 40 40
33.4930 14.6953 0.2264 255 40 40
33.4891 14.6934 0.2264 255 40 40
33.4851 14.6915 0.2264 255 40 40
33.4811 14.6896 0.2264 255 40 40
33.4772 14.6877 0.2264 255 40 40
33.4732 14.6858 0.2264 255 40 40
33.4692 14.6839 0.2264 255 40 40
33.4653 14.6820 0.2264 255 40 40
33.4613 14.6801 0.2264 255 40 40
33.4573 14.6782 0.2264 255 40 40
33.4534 14.6763 0.2264 255 40 40
33.4494 14.6744 0.2264 255 40 40
33.4454 14.6726 0.2264 255 40 40
33.4415 14.6707 0.2264 255 40 40
33.4375 14.6688 0.2264 255 40 40
33.4335 14.6669 0.2264 255 40 40
33.4296 14.6650 0.2264 255 40 40
33.4256 14.6631 0.2264 255 40 40
33.4216 14.6612 0.2264 255 40 40
33.4176 14.6593 0.2264 255 40 40
33.4137 14.6574 0.2264 255 40 40
33.4097 14.6555 0.2264 255 40 40
33.4057 14.6536 0.2264 255 40 40
33.4018 14.6517 0.2264 255 40 40
33.3978 14.6498 0.2264 255 40 40
33.3938 14.6479 0.2264 255 40 40
33.3899 14.6460 0.2264 255 40 40
33.3859 14.6441 0.2264 255 40 40
33.3819 14.6422 0.2264 255 40 40
33.3780 14.6403 0.2264 255 40 40
33.3740 14.6384 0.2264 255 40 40
33.3700 14.6365 0.2264 255 40 40
33.3661 14.6346 0.2264 255 40 40
33.3621 14.6327 0.2264 255 40 40
33.3581 14.6308 0.2264 255 40 40
33.3542 14.6289 0.2264 255 40 40
33.3502 14.6270 0.2264 255 40 40
33.3462 14.6251 0.2264 255 40 40
33.3423 14.6232 0.2264 255 40 40
33.3383 14.6213 0.2264 255 40 40
33.3343 14.6194 0.2264 255 40 40
33.3304 14.6176 0.2264 255 40 40
33.3264 14.6157 0.2264 255 40 40
33.3224 14.6138 0.2264 255 40 40
33.3185 14.6119 0.2264 255 40 40
33.3145 14.6100 0.2264 255 40 40
33.3105 14.6081 0.2264 255 40 40
33.3066 14.6062 0.2264 255 40 40
33.3026 14.6043 0.2264 255 40 40
33.2986 14.6024 0.2264 255 40 40
33.2947 14.6005 0.2264 255 40 40
33.2907 14.5986 0.2264 255 40 40
33.2867 14.5967 0.2264 255 40 40
33.2867 14.5967 0.2264 255 40 40
33.2885 14.5930 0.2264 255 40 40
33.2902 14.5894 0.2264 255 40 40
33.2920 14.5857 0.2264 255 40 40
33.2937 14.5820 0.2264 255 40 40
33.2955 14.5783 0.2264 255 40 40
33.2972 14.5747 0.2264 255 40 40
33.2990 14.5710 0.2264 255 40 40
33.3007 14.5673 0.2264 255 40 40
33.3025 14.5637 0.2264 255 40 40
33.3043 14.5600 0.2264 255 40 40
33.3060 14.5563 0.2264 255 40 40
33.3078 14.5527 0.2264 255 40 40
33.3095 14.5490 0.2264 255 40 40
33.3113 14.5453 0.2264 255 40 40
33.3130 14.5417 0.2264 255 40 40
33.3148 14.5380 0.2264 255 40 40
33.3165 14.5343 0.2264 255 40 40
33.3183 14.5307 0.2264 255 40 40
33.3200 14.5270 0.2264 255 40 40
33.3218 14.5233 0.2264 255 40 40
33.3235 14.5197 0.2264 255 40 40
33.3253 14.5160 0.2264 255 40 40
33.3270 14.5123 0.2264 255 40 40
33.3288 14.5086 0.2264 255 40 40
33.3306 14.5050 0.2264 255 40 40
33.3323 14.5013 0.2264 255 40 40
33.3341 14.4976 0.2264 255 40 40
33.3358 14.4940 0.2264 255 40 40
33.3376 14.4903 0.2264 255 40 40
33.3393 14.4866 0.2264 255 40 40
33.3411 14.4830 0.2264 255 40 40
33.3428 14.4793 0.2264 255 40 40
33.3446 14.4756 0.2264 255 40 40
33.3463 14.4720 0.2264 255 40 40
33.3481 14.4683 0.2264 255 40 40
33.3498 14.4646 0.2264 255 40 40
33.3516 14.4610 0.2264 255 40 40
33.3534 14.4573 0.2264 255 40 40
33.3551 14.4536 0.2264 255 40 40
33.3569 14.4500 0.2264 255 40 40
33.3586 14.4463 0.2264 255 40 40
33.3604 14.4426 0.2264 255 40 40
33.3621 14.4389 0.2264 255 40 40
33.3639 14.4353 0.2264 255 40 40
33.3656 14.4316 0.2264 255 40 40
33.3674 14.4279 0.2264 255 40 40
33.3691 14.4243 0.2264 255 40 40
33.3709 14.4206 0.2264 255 40 40
33.3726 14.4169 0.2264 255 40 40
33.3744 14.4133 0.2264 255 40 40
33.3762 14.4096 0.2264 255 40 40
33.3779 14.4059 0.2264 255 40 40
33.3797 14.4023 0.2264 255 40 40
33.3814 14.3986 0.2264 255 40 40
33.3832 14.3949 0.2264 255 40 40
33.3849 14.3913 0.2264 255 40 40
33.3867 14.3876 0.2264 255 40 40
33.3884 14.3839 0.2264 255 40 40
33.3902 14.3802 0.2264 255 40 40
33.3919 14.3766 0.2264 255 40 40
33.3937 14.3729 0.2264 255 40 40
33.3954 14.3692 0.2264 255 40 40
33.3972 14.3656 0.2264 255 40 40
33.3989 14.3619 0.2264 255 40 40
33.4007 14.3582 0.2264 255 40 40
33.4025 14.3546 0.2264 255 40 40
33.4042 14.3509 0.2264 255 40 40
33.4060 14.3472 0.2264 255 40 40
33.4077 14.3436 0.2264 255 40 40
33.4095 14.3399 0.2264 255 40 40
33.4112 14.3362 0.2264 255 40 40
33.4130 14.3326 0.2264 255 40 40
33.4147 14.3289 0.2264 255 40 40
33.4165 14.3252 0.2264 255 40 40
33.4182 14.3216 0.2264 255 40 40
33.4200 14.3179 0.2264 255 40 40
33.4217 14.3142 0.2264 255 40 40
33.4235 14.3105 0.2264 255 40 40
33.4253 14.3069 0.2264 255 40 40
33.4270 14.3032 0.2264 255 40 40
33.4288 14.2995 0.2264 255 40 40
33.4305 14.2959 0.2264 255 40 40
33.4323 14.2922 0.2264 255 40 40
33.4340 14.2885 0.2264 255 40 40
33.4358 14.2849 0.2264 255 40 40
33.4375 14.2812 0.2264 255 40 40
33.4393 14.2775 0.2264 255 40 40
33.4410 14.2739 0.2264 255 40 40
33.4428 14.2702 0.2264 255 40 40
33.4445 14.2665 0.2264 255 40 40
33.4463 14.2629 0.2264 255 40 40
33.4480 14.2592 0.2264 255 40 40
33.4498 14.2555 0.2264 255 40 40
33.4516 14.2519 0.2264 255 40 40
33.4533 14.2482 0.2264 255 40 40
33.4551 14.2445 0.2264 255 40 40
33.4568 14.2408 0.2264 255 40 40
33.4586 14.2372 0.2264 255 40 40
33.4603 14.2335 0.2264 255 40 40
33.4621 14.2298 0.2264 255 40 40
33.4638 14.2262 0.2264 255 40 40
33.4656 14.2225 0.2264 255 40 40
33.4673 14.2188 0.2264 255 40 40
33.4691 14.2152 0.2264 255 40 40
33.4708 14.2115 0.2264 255 40 40
33.4726 14.2078 0.2264 255 40 40
33.4744 14.2042 0.2264 255 40 40
33.4761 14.2005 0.2264 255 40 40
33.4779 14.1968 0.2264 255 40 40
33.4796 14.1932 0.2264 255 40 40
33.4814 14.1895 0.2264 255 40 40
33.4831 14.1858 0.2264 255 40 40
33.4849 14.1822 0.2264 255 40 40
33.4866 14.1785 0.2264 255 40 40
33.4884 14.1748 0.2264 255 40 40
33.4901 14.1711 0.2264 255 40 40
33.4919 14.1675 0.2264 255 40 40
33.4936 14.1638 0.2264 255 40 40
33.4954 14.1601 0.2264 255 40 40
33.4972 14.1565 0.2264 255 40 40
33.4989 14.1528 0.2264 255 40 40
33.5007 14.1491 0.2264 255 40 40
33.5024 14.1455 0.2264 255 40 40
33.5042 14.1418 0.2264 255 40 40
33.5059 14.1381 0.2264 255 40 40
33.5077 14.1345 0.2264 255 40 40
33.5094 14.1308 0.2264 255 40 40
33.5112 14.1271 0.2264 255 40 40
33.5129 14.1235 0.2264 255 40 40
33.5147 14.1198 0.2264 255 40 40
33.5164 14.1161 0.2264 255 40 40
33.5182 14.1125 0.2264 255 40 40
33.5199 14.1088 0.2264 255 40 40
33.5217 14.1051 0.2264 255 40 40
33.5235 14.1014 0.2264 255 40 40
33.5252 14.0978 0.2264 255 40 40
33.5270 14.0941 0.2264 255 40 40
33.5287 14.0904 0.2264 255 40 40
33.5305 14.0868 0.2264 255 40 40
33.5322 14.0831 0.2264 255 40 40
33.5340 14.0794 0.2264 255 40 40
33.5357 14.0758 0.2264 255 40 40
33.5375 14.0721 0.2264 255 40 40
33.5392 14.0684 0.2264 255 40 40
33.5410 14.0648 0.2264 255 40 40
33.5427 14.0611 0.2264 255 40 40
33.5445 14.0574 0.2264 255 40 40
33.5462 14.0538 0.2264 255 40 40
33.5480 14.0501 0.2264 255 40 40
33.5498 14.0464 0.2264 255 40 40
33.5515 14.0428 0.2264 255 40 40
33.5533 14.0391 0.2264 255 40 40
33.5550 14.0354 0.2264 255 40 40
33.5568 14.0317 0.2264 255 40 40
33.5585 14.0281 0.2264 255 40 40
33.5603 14.0244 0.2264 255 40 40
33.5620 14.0207 0.2264 255 40 40
33.5638 14.0171 0.2264 255 40 40
33.5655 14.0134 0.2264 255 40 40
33.5673 14.0097 0.2264 255 40 40
33.5690 14.0061 0.2264 255 40 40
33.5708 14.0024 0.2264 255 40 40
33.5726 13.9987 0.2264 255 40 40
33.5743 13.9951 0.2264 255 40 40
33.5761 13.9914 0.2264 255 40 40
33.5761 13.9914 0.2264 255 40 40
33.5800 13.9933 0.2264 255 40 40
33.5840 13.9952 0.2264 255 40 40
33.5880 13.9971 0.2264 255 40 40
33.5919 13.9990 0.2264 255 40 40
33.5959 14.0009 0.2264 255 40 40
33.5999 14.0028 0.2264 255 40 40
33.6038 14.0047 0.2264 255 40 40
33.6078 14.0066 0.2264 255 40 40
33.6118 14.0085 0.2264 255 40 40
33.6157 14.0104 0.2264 255 40 40
33.6197 14.0123 0.2264 255 40 40
33.6237 14.0141 0.2264 255 40 40
33.6276 14.0160 0.2264 255 40 40
33.6316 14.0179 0.2264 255 40 40
33.6356 14.0198 0.2264 255 40 40
33.6395 14.0217 0.2264 255 40 40
33.6435 14.0236 0.2264 255 40 40
33.6475 14.0255 0.2264 255 40 40
33.6514 14.0274 0.2264 255 40 40
33.6554 14.0293 0.2264 255 40 40
33.6594 14.0312 0.2264 255 40 40
33.6633 14.0331 0.2264 255 40 40
33.6673 14.0350 0.2264 255 40 40
33.6713 14.0369 0.2264 255 40 40
33.6753 14.0388 0.2264 255 40 40
33.6792 14.0407 0.2264 255 40 40
33.6832 14.0426 0.2264 255 40 40
33.6872 14.0445 0.2264 255 40 40
33.6911 14.0464 0.2264 255 40 40
33.6951 14.0483 0.2264 255 40 40
33.6991 14.0502 0.2264 255 40 40
33.7030 14.0521 0.2264 255 40 40
33.7070 14.0540 0.2264 255 40 40
33.7110 14.0559 0.2264 255 40 40
33.7149 14.0578 0.2264 255 40 40
33.7189 14.0597 0.2264 255 40 40
33.7229 14.0616 0.2264 255 40 40
33.7268 14.0635 0.2264 255 40 40
33.7308 14.0654 0.2264 255 40 40
33.7348 14.0673 0.2264 255 40 40
33.7387 14.0692 0.2264 255 40 40
33.7427 14.0710 0.2264 255 40 40
33.7467 14.0729 0.2264 255 40 40
33.7506 14.0748 0.2264 255 40 40
33.7546 14.0767 0.2264 255 40 40
33.7586 14.0786 0.2264 255 40 40
33.7625 14.0805 0.2264 255 40 40
33.7665 14.0824 0.2264 255 40 40
33.7705 14.0843 0.2264 255 40 40
33.7744 14.0862 0.2264 255 40 40
33.7784 14.0881 0.2264 255 40 40
33.7824 14.0900 0.2264 255 40 40
33.7863 14.0919 0.2264 255 40 40
33.7903 14.0938 0.2264 255 40 40
33.7943 14.0957 0.2264 255 40 40
33.7982 14.0976 0.2264 255 40 40
33.8022 14.0995 0.2264 255 40 40
33.8062 14.1014 0.2264 255 40 40
33.8102 14.1033 0.2264 255 40 40
33.8141 14.1052 0.2264 255 40 40
33.8181 14.1071 0.2264 255 40 40
33.8221 14.1090 0.2264 255 40 40
33.8260 14.1109 0.2264 255 40 40
33.8300 14.1128 0.2264 255 40 40
33.8340 14.1147 0.2264 255 40 40
33.8379 14.1166 0.2264 255 40 40
33.8419 14.1185 0.2264 255 40 40
33.8459 14.1204 0.2264 255 40 40
33.8498 14.1223 0.2264 255 40 40
33.8538 14.1242 0.2264 255 40 40
33.8578 14.1260 0.2264 255 40 40
33.8617 14.1279 0.2264 255 40 40
33.8657 14.1298 0.2264 255 40 40
33.8697 14.1317 0.2264 255 40 40
33.8736 14.1336 0.2264 255 40 40
33.8776 14.1355 0.2264 255 40 40
33.8816 14.1374 0.2264 255 40 40
33.8855 14.1393 0.2264 255 40 40
33.8895 14.1412 0.2264 255 40 40
33.8935 14.1431 0.2264 255 40 40
33.8974 14.1450 0.2264 255 40 40
33.9014 14.1469 0.2264 255 40 40
33.9054 14.1488 0.2264 255 40 40
33.9093 14.1507 0.2264 255 40 40
33.9133 14.1526 0.2264 255 40 40
33.9173 14.1545 0.2264 255 40 40
33.9212 14.1564 0.2264 255 40 40
33.9252 14.1583 0.2264 255 40 40
33.9292 14.1602 0.2264 255 40 40
33.9331 14.1621 0.2264 255 40 40
33.9371 14.1640 0.2264 255 40 40
33.9411 14.1659 0.2264 255 40 40
33.9450 14.1678 0.2264 255 40 40
33.9490 14.1697 0.2264 255 40 40
33.9530 14.1716 0.2264 255 40 40
33.9570 14.1735 0.2264 255 40 40
33.9609 14.1754 0.2264 255 40 40
33.9649 14.1773 0.2264 255 40 40
33.9689 14.1792 0.2264 255 40 40
33.9728 14.1810 0.2264 255 40 40
33.9768 14.1829 0.2264 255 40 40
33.9808 14.1848 0.2264 255 40 40
33.9847 14.1867 0.2264 255 40 40
33.9887 14.1886 0.2264 255 40 40
33.9927 14.1905 0.2264 255 40 40
33.9966 14.1924 0.2264 255 40 40
34.0006 14.1943 0.2264 255 40 40
34.0046 14.1962 0.2264 255 40 40
34.0085 14.1981 0.2264 255 40 40
34.0125 14.2000 0.2264 255 40 40
34.0165 14.2019 0.2264 255 40 40
34.0204 14.2038 0.2264 255 40 40
34.0244 14.2057 0.2264 255 40 40
34.0284 14.2076 0.2264 255 40 40
34.0323 14.2095 0.2264 255 40 40
34.0363 14.2114 0.2264 255 40 40
34.0403 14.2133 0.2264 255 40 40
34.0442 14.2152 0.2264 255 40 40
34.0482 14.2171 0.2264 255 40 40
34.0522 14.2190 0.2264 255 40 40
34.0561 14.2209 0.2264 255 40 40
34.0601 14.2228 0.2264 255 40 40
34.0641 14.2247 0.2264 255 40 40
34.0680 14.2266 0.2264 255 40 40
34.0720 14.2285 0.2264 255 40 40
34.0760 14.2304 0.2264 255 40 40
34.0799 14.2323 0.2264 255 40 40
34.0839 14.2342 0.2264 255 40 40
34.0879 14.2360 0.2264 255 40 40
34.0919 14.2379 0.2264 255 40 40
34.0958 14.2398 0.2264 255 40 40
34.0998 14.2417 0.2264 255 40 40
34.1038 14.2436 0.2264 255 40 40
34.1077 14.2455 0.2264 255 40 40
34.1117 14.2474 0.2264 255 40 40
34.1157 14.2493 0.2264 255 40 40
34.1196 14.2512 0.2264 255 40 40
34.1236 14.2531 0.2264 255 40 40
34.1276 14.2550 0.2264 255 40 40
34.1315 14.2569 0.2264 255 40 40
34.1355 14.2588 0.2264 255 40 40
34.1395 14.2607 0.2264 255 40 40
34.1434 14.2626 0.2264 255 40 40
34.1474 14.2645 0.2264 255 40 40
34.1514 14.2664 0.2264 255 40 40
34.1553 14.2683 0.2264 255 40 40
34.1593 14.2702 0.2264 255 40 40
34.1633 14.2721 0.2264 255 40 40
34.1672 14.2740 0.2264 255 40 40
34.1712 14.2759 0.2264 255 40 40
34.1752 14.2778 0.2264 255 40 40
34.1791 14.2797 0.2264 255 40 40
34.1831 14.2816 0.2264 255 40 40
34.1871 14.2835 0.2264 255 40 40
34.1910 14.2854 0.2264 255 40 40
34.1950 14.2873 0.2264 255 40 40
34.1990 14.2892 0.2264 255 40 40
34.2029 14.2910 0.2264 255 40 40
34.2069 14.2929 0.2264 255 40 40
34.2109 14.2948 0.2264 255 40 40
34.2148 14.2967 0.2264 255 40 40
34.2188 14.2986 0.2264 255 40 40
34.2228 14.3005 0.2264 255 40 40
34.2267 14.3024 0.2264 255 40 40
34.2307 14.3043 0.2264 255 40 40
34.2307 14.3043 0.2264 255 40 40
34.2290 14.3080 0.2264 255 40 40
34.2272 14.3117 0.2264 255 40 40
34.2255 14.3153 0.2264 255 40 40
34.2237 14.3190 0.2264 255 40 40
34.2220 14.3227 0.2264 255 40 40
34.2202 14.3263 0.2264 255 40 40
34.2184 14.3300 0.2264 255 40 40
34.2167 14.3337 0.2264 255 40 40
34.2149 14.3373 0.2264 255 40 40
34.2132 14.3410 0.2264 255 40 40
34.2114 14.3447 0.2264 255 40 40
34.2097 14.3483 0.2264 255 40 40
34.2079 14.3520 0.2264 255 40 40
34.2062 14.3557 0.2264 255 40 40
34.2044 14.3594 0.2264 255 40 40
34.2027 14.3630 0.2264 255 40 40
34.2009 14.3667 0.2264 255 40 40
34.1992 14.3704 0.2264 255 40 40
34.1974 14.3740 0.2264 255 40 40
34.1956 14.3777 0.2264 255 40 40
34.1939 14.3814 0.2264 255 40 40
34.1921 14.3850 0.2264 255 40 40
34.1904 14.3887 0.2264 255 40 40
34.1886 14.3924 0.2264 255 40 40
34.1869 14.3960 0.2264 255 40 40
34.1851 14.3997 0.2264 255 40 40
34.1834 14.4034 0.2264 255 40 40
34.1816 14.4070 0.2264 255 40 40
34.1799 14.4107 0.2264 255 40 40
34.1781 14.4144 0.2264 255 40 40
34.1764 14.4180 0.2264 255 40 40
34.1746 14.4217 0.2264 255 40 40
34.1728 14.4254 0.2264 255 40 40
34.1711 14.4291 0.2264 255 40 40
34.1693 14.4327 0.2264 255 40 40
34.1676 14.4364 0.2264 255 40 40
34.1658 14.4401 0.2264 255 40 40
34.1641 14.4437 0.2264 255 40 40
34.1623 14.4474 0.2264 255 40 40
34.1606 14.4511 0.2264 255 40 40
34.1588 14.4547 0.2264 255 40 40
34.1571 14.4584 0.2264 255 40 40
34.1553 14.4621 0.2264 255 40 40
34.1536 14.4657 0.2264 255 40 40
34.1518 14.4694 0.2264 255 40 40
34.1501 14.4731 0.2264 255 40 40
34.1483 14.4767 0.2264 255 40 40
34.1465 14.4804 0.2264 255 40 40
34.1448 14.4841 0.2264 255 40 40
34.1430 14.4878 0.2264 255 40 40
34.1413 14.4914 0.2264 255 40 40
34.1395 14.4951 0.2264 255 40 40
34.1378 14.4988 0.2264 255 40 40
34.1360 14.5024 0.2264 255 40 40
34.1343 14.5061 0.2264 255 40 40
34.1325 14.5098 0.2264 255 40 40
34.1308 14.5134 0.2264 255 40 40
34.1290 14.5171 0.2264 255 40 40
34.1273 14.5208 0.2264 255 40 40
34.1255 14.5244 0.2264 255 40 40
34.1237 14.5281 0.2264 255 40 40
34.1220 14.5318 0.2264 255 40 40
34.1202 14.5354 0.2264 255 40 40
34.1185 14.5391 0.2264 255 40 40
34.1167 14.5428 0.2264 255 40 40
34.1150 14.5464 0.2264 255 40 40
34.1132 14.5501 0.2264 255 40 40
34.1115 14.5538 0.2264 255 40 40
34.1097 14.5575 0.2264 255 40 40
34.1080 14.5611 0.2264 255 40 40
34.1062 14.5648 0.2264 255 40 40
34.1045 14.5685 0.2264 255 40 40
34.1027 14.5721 0.2264 255 40 40
34.1009 14.5758 0.2264 255 40 40
34.0992 14.5795 0.2264 255 40 40
34.0974 14.5831 0.2264 255 40 40
34.0957 14.5868 0.2264 255 40 40
34.0939 14.5905 0.2264 255 40 40
34.0922 14.5941 0.2264 255 40 40
34.0904 14.5978 0.2264 255 40 40
34.0887 14.6015 0.2264 255 40 40
34.0869 14.6051 0.2264 255 40 40
34.0852 14.6088 0.2264 255 40 40
34.0834 14.6125 0.2264 255 40 40
34.0817 14.6161 0.2264 255 40 40
34.0799 14.6198 0.2264 255 40 40
34.0782 14.6235 0.2264 255 40 40
34.0764 14.6272 0.2264 255 40 40
34.0746 14.6308 0.2264 255 40 40
34.0729 14.6345 0.2264 255 40 40
34.0711 14.6382 0.2264 255 40 40
34.0694 14.6418 0.2264 255 40 40
34.0676 14.6455 0.2264 255 40 40
34.0659 14.6492 0.2264 255 40 40
34.0641 14.6528 0.2264 255 40 40
34.0624 14.6565 0.2264 255 40 40
34.0606 14.6602 0.2264 255 40 40
34.0589 14.6638 0.2264 255 40 40
34.0571 14.6675 0.2264 255 40 40
34.0554 14.6712 0.2264 255 40 40
34.0536 14.6748 0.2264 255 40 40
34.0518 14.6785 0.2264 255 40 40
34.0501 14.6822 0.2264 255 40 40
34.0483 14.6858 0.2264 255 40 40
34.0466 14.6895 0.2264 255 40 40
34.0448 14.6932 0.2264 255 40 40
34.0431 14.6969 0.2264 255 40 40
34.0413 14.7005 0.2264 255 40 40
34.0396 14.7042 0.2264 255 40 40
34.0378 14.7079 0.2264 255 40 40
34.0361 14.7115 0.2264 255 40 40
34.0343 14.7152 0.2264 255 40 40
34.0326 14.7189 0.2264 255 40 40
34.0308 14.7225 0.2264 255 40 40
34.0291 14.7262 0.2264 255 40 40
34.0273 14.7299 0.2264 255 40 40
34.0255 14.7335 0.2264 255 40 40
34.0238 14.7372 0.2264 255 40 40
34.0220 14.7409 0.2264 255 40 40
34.0203 14.7445 0.2264 255 40 40
34.0185 14.7482 0.2264 255 40 40
34.0168 14.7519 0.2264 255 40 40
34.0150 14.7555 0.2264 255 40 40
34.0133 14.7592 0.2264 255 40 40
34.0115 14.7629 0.2264 255 40 40
34.0098 14.7666 0.2264 255 40 40
34.0080 14.7702 0.2264 255 40 40
34.0063 14.7739 0.2264 255 40 40
34.0045 14.7776 0.2264 255 40 40
34.0027 14.7812 0.2264 255 40 40
34.0010 14.7849 0.2264 255 40 40
33.9992 14.7886 0.2264 255 40 40
33.9975 14.7922 0.2264 255 40 40
33.9957 14.7959 0.2264 255 40 40
33.9940 14.7996 0.2264 255 40 40
33.9922 14.8032 0.2264 255 40 40
33.9905 14.8069 0.2264 255 40 40
33.9887 14.8106 0.2264 255 40 40
33.9870 14.8142 0.2264 255 40 40
33.9852 14.8179 0.2264 255 40 40
33.9835 14.8216 0.2264 255 40 40
33.9817 14.8252 0.2264 255 40 40
33.9799 14.8289 0.2264 255 40 40
33.9782 14.8326 0.2264 255 40 40
33.9764 14.8363 0.2264 255 40 40
33.9747 14.8399 0.2264 255 40 40
33.9729 14.8436 0.2264 255 40 40
33.9712 14.8473 0.2264 255 40 40
33.9694 14.8509 0.2264 255 40 40
33.9677 14.8546 0.2264 255 40 40
33.9659 14.8583 0.2264 255 40 40
33.9642 14.8619 0.2264 255 40 40
33.9624 14.8656 0.2264 255 40 40
33.9607 14.8693 0.2264 255 40 40
33.9589 14.8729 0.2264 255 40 40
33.9572 14.8766 0.2264 255 40 40
33.9554 14.8803 0.2264 255 40 40
33.9536 14.8839 0.2264 255 40 40
33.9519 14.8876 0.2264 255 40 40
33.9501 14.8913 0.2264 255 40 40
33.9484 14.8950 0.2264 255 40 40
33.9466 14.8986 0.2264 255 40 40
33.9449 14.9023 0.2264 255 40 40
33.9431 14.9060 0.2264 255 40 40
33.9414 14.9096 0.2264 255 40 40
33.9414 14.9096 1.9578 255 40 40
33.9374 14.9077 1.9578 255 40 40
33.9334 14.9058 1.9578 255 40 40
33.9295 14.9039 1.9578 255 40 40
33.9255 14.9020 1.9578 255 40 40
33.9215 14.9001 1.9578 255 40 40
33.9176 14.8982 1.9578 255 40 40
33.9136 14.8963 1.9578 255 40 40
33.9096 14.8945 1.9578 255 40 40
33.9057 14.8926 1.9578 255 40 40
33.9017 14.8907 1.9578 255 40 40
33.8977 14.8888 1.9578 255 40 40
33.8938 14.8869 1.9578 255 40 40
33.8898 14.8850 1.9578 255 40 40
33.8858 14.8831 1.9578 255 40 40
33.8819 14.8812 1.9578 255 40 40
33.8779 14.8793 1.9578 255 40 40
33.8739 14.8774 1.9578 255 40 40
33.8700 14.8755 1.9578 255 40 40
33.8660 14.8736 1.9578 255 40 40
33.8620 14.8717 1.9578 255 40 40
33.8581 14.8698 1.9578 255 40 40
33.8541 14.8679 1.9578 255 40 40
33.8501 14.8660 1.9578 255 40 40
33.8461 14.8641 1.9578 255 40 40
33.8422 14.8622 1.9578 255 40 40
33.8382 14.8603 1.9578 255 40 40
33.8342 14.8584 1.9578 255 40 40
33.8303 14.8565 1.9578 255 40 40
33.8263 14.8546 1.9578 255 40 40
33.8223 14.8527 1.9578 255 40 40
33.8184 14.8508 1.9578 255 40 40
33.8144 14.8489 1.9578 255 40 40
33.8104 14.8470 1.9578 255 40 40
33.8065 14.8451 1.9578 255 40 40
33.8025 14.8432 1.9578 255 40 40
33.7985 14.8413 1.9578 255 40 40
33.7946 14.8395 1.9578 255 40 40
33.7906 14.8376 1.9578 255 40 40
33.7866 14.8357 1.9578 255 40 40
33.7827 14.8338 1.9578 255 40 40
33.7787 14.8319 1.9578 255 40 40
33.7747 14.8300 1.9578 255 40 40
33.7708 14.8281 1.9578 255 40 40
33.7668 14.8262 1.9578 255 40 40
33.7628 14.8243 1.9578 255 40 40
33.7589 14.8224 1.9578 255 40 40
33.7549 14.8205 1.9578 255 40 40
33.7509 14.8186 1.9578 255 40 40
33.7470 14.8167 1.9578 255 40 40
33.7430 14.8148 1.9578 255 40 40
33.7390 14.8129 1.9578 255 40 40
33.7351 14.8110 1.9578 255 40 40
33.7311 14.8091 1.9578 255 40 40
33.7271 14.8072 1.9578 255 40 40
33.7232 14.8053 1.9578 255 40 40
33.7192 14.8034 1.9578 255 40 40
33.7152 14.8015 1.9578 255 40 40
33.7113 14.7996 1.9578 255 40 40
33.7073 14.7977 1.9578 255 40 40
33.7033 14.7958 1.9578 255 40 40
33.6993 14.7939 1.9578 255 40 40
33.6954 14.7920 1.9578 255 40 40
33.6914 14.7901 1.9578 255 40 40
33.6874 14.7882 1.9578 255 40 40
33.6835 14.7863 1.9578 255 40 40
33.6795 14.7845 1.9578 255 40 40
33.6755 14.7826 1.9578 255 40 40
33.6716 14.7807 1.9578 255 40 40
33.6676 14.7788 1.9578 255 40 40
33.6636 14.7769 1.9578 255 40 40
33.6597 14.7750 1.9578 255 40 40
33.6557 14.7731 1.9578 255 40 40
33.6517 14.7712 1.9578 255 40 40
33.6478 14.7693 1.9578 255 40 40
33.6438 14.7674 1.9578 255 40 40
33.6398 14.7655 1.9578 255 40 40
33.6359 14.7636 1.9578 255 40 40
33.6319 14.7617 1.9578 255 40 40
33.6279 14.7598 1.9578 255 40 40
33.6240 14.7579 1.9578 255 40 40
33.6200 14.7560 1.9578 255 40 40
33.6160 14.7541 1.9578 255 40 40
33.6121 14.7522 1.9578 255 40 40
33.6081 14.7503 1.9578 255 40 40
33.6041 14.7484 1.9578 255 40 40
33.6002 14.7465 1.9578 255 40 40
33.5962 14.7446 1.9578 255 40 40
33.5922 14.7427 1.9578 255 40 40
33.5883 14.7408 1.9578 255 40 40
33.5843 14.7389 1.9578 255 40 40
33.5803 14.7370 1.9578 255 40 40
33.5764 14.7351 1.9578 255 40 40
33.5724 14.7332 1.9578 255 40 40
33.5684 14.7313 1.9578 255 40 40
33.5644 14.7295 1.9578 255 40 40
33.5605 14.7276 1.9578 255 40 40
33.5565 14.7257 1.9578 255 40 40
33.5525 14.7238 1.9578 255 40 40
33.5486 14.7219 1.9578 255 40 40
33.5446 14.7200 1.9578 255 40 40
33.5406 14.7181 1.9578 255 40 40
33.5367 14.7162 1.9578 255 40 40
33.5327 14.7143 1.9578 255 40 40
33.5287 14.7124 1.9578 255 40 40
33.5248 14.7105 1.9578 255 40 40
33.5208 14.7086 1.9578 255 40 40
33.5168 14.7067 1.9578 255 40 40
33.5129 14.7048 1.9578 255 40 40
33.5089 14.7029 1.9578 255 40 40
33.5049 14.7010 1.9578 255 40 40
33.5010 14.6991 1.9578 255 40 40
33.4970 14.6972 1.9578 255 40 40
33.4930 14.6953 1.9578 255 40 40
33.4891 14.6934 1.9578 255 40 40
33.4851 14.6915 1.9578 255 40 40
33.4811 14.6896 1.9578 255 40 40
33.4772 14.6877 1.9578 255 40 40
33.4732 14.6858 1.9578 255 40 40
33.4692 14.6839 1.9578 255 40 40
33.4653 14.6820 1.9578 255 40 40
33.4613 14.6801 1.9578 255 40 40
33.4573 14.6782 1.9578 255 40 40
33.4534 14.6763 1.9578 255 40 40
33.4494 14.6744 1.9578 255 40 40
33.4454 14.6726 1.9578 255 40 40
33.4415 14.6707 1.9578 255 40 40
33.4375 14.6688 1.9578 255 40 40
33.4335 14.6669 1.9578 255 40 40
33.4296 14.6650 1.9578 255 40 40
33.4256 14.6631 1.9578 255 40 40
33.4216 14.6612 1.9578 255 40 40
33.4176 14.6593 1.9578 255 40 40
33.4137 14.6574 1.9578 255 40 40
33.4097 14.6555 1.9578 255 40 40
33.4057 14.6536 1.9578 255 40 40
33.4018 14.6517 1.9578 255 40 40
33.3978 14.6498 1.9578 255 40 40
33.3938 14.6479 1.9578 255 40 40
33.3899 14.6460 1.9578 255 40 40
33.3859 14.6441 1.9578 255 40 40
33.3819 14.6422 1.9578 255 40 40
33.3780 14.6403 1.9578 255 40 40
33.3740 14.6384 1.9578 255 40 40
33.3700 14.6365 1.9578 255 40 40
33.3661 14.6346 1.9578 255 40 40
33.3621 14.6327 1.9578 255 40 40
33.3581 14.6308 1.9578 255 40 40
33.3542 14.6289 1.9578 255 40 40
33.3502 14.6270 1.9578 255 40 40
33.3462 14.6251 1.9578 255 40 40
33.3423 14.6232 1.9578 255 40 40
33.3383 14.6213 1.9578 255 40 40
33.3343 14.6194 1.9578 255 40 40
33.3304 14.6176 1.9578 255 40 40
33.3264 14.6157 1.9578 255 40 40
33.3224 14.6138 1.9578 255 40 40
33.3185 14.6119 1.9578 255 40 40
33.3145 14.6100 1.9578 255 40 40
33.3105 14.6081 1.9578 255 40 40
33.3066 14.6062 1.9578 255 40 40
33.3026 14.6043 1.9578 255 40 40
33.2986 14.6024 1.9578 255 40 40
33.2947 14.6005 1.9578 255 40 40
33.2907 14.5986 1.9578 255 40 40
33.2867 14.5967 1.9578 255 40 40
33.2867 14.5967 1.9578 255 40 40
33.2885 14.5930 1.9578 255 40 40
33.2902 14.5894 1.9578 255 40 40
33.2920 14.5857 1.9578 255 40 40
33.2937 14.5820 1.9578 255 40 40
33.2955 14.5783 1.9578 255 40 40
33.2972 14.5747 1.9578 255 40 40
33.2990 14.5710 1.9578 255 40 40
33.3007 14.5673 1.9578 255 40 40
33.3025 14.5637 1.9578 255 40 40
33.3043 14.5600 1.9578 255 40 40
33.3060 14.5563 1.9578 255 40 40
33.3078 14.5527 1.9578 255 40 40
33.3095 14.5490 1.9578 255 40 40
33.3113 14.5453 1.9578 255 40 40
33.3130 14.5417 1.9578 255 40 40
33.3148 14.5380 1.9578 255 40 40
33.3165 14.5343 1.9578 255 40 40
33.3183 14.5307 1.9578 255 40 40
33.3200 14.5270 1.9578 255 40 40
33.3218 14.5233 1.9578 255 40 40
33.3235 14.5197 1.9578 255 40 40
33.3253 14.5160 1.9578 255 40 40
33.3270 14.5123 1.9578 255 40 40
33.3288 14.5086 1.9578 255 40 40
33.3306 14.5050 1.9578 255 40 40
33.3323 14.5013 1.9578 255 40 40
33.3341 14.4976 1.9578 255 40 40
33.3358 14.4940 1.9578 255 40 40
33.3376 14.4903 1.9578 255 40 40
33.3393 14.4866 1.9578 255 40 40
33.3411 14.4830 1.9578 255 40 40
33.3428 14.4793 1.9578 255 40 40
33.3446 14.4756 1.9578 255 40 40
33.3463 14.4720 1.9578 255 40 40
33.3481 14.4683 1.9578 255 40 40
33.3498 14.4646 1.9578 255 40 40
33.3516 14.4610 1.9578 255 40 40
33.3534 14.4573 1.9578 255 40 40
33.3551 14.4536 1.9578 255 40 40
33.3569 14.4500 1.9578 255 40 40
33.3586 14.4463 1.9578 255 40 40
33.3604 14.4426 1.9578 255 40 40
33.3621 14.4389 1.9578 255 40 40
33.3639 14.4353 1.9578 255 40 40
33.3656 14.4316 1.9578 255 40 40
33.3674 14.4279 1.9578 255 40 40
33.3691 14.4243 1.9578 255 40 40
33.3709 14.4206 1.9578 255 40 40
33.3726 14.4169 1.9578 255 40 40
33.3744 14.4133 1.9578 255 40 40
33.3762 14.4096 1.9578 255 40 40
33.3779 14.4059 1.9578 255 40 40
33.3797 14.4023 1.9578 255 40 40
33.3814 14.3986 1.9578 255 40 40
33.3832 14.3949 1.9578 255 40 40
33.3849 14.3913 1.9578 255 40 40
33.3867 14.3876 1.9578 255 40 40
33.3884 14.3839 1.9578 255 40 40
33.3902 14.3802 1.9578 255 40 40
33.3919 14.3766 1.9578 255 40 40
33.3937 14.3729 1.9578 255 40 40
33.3954 14.3692 1.9578 255 40 40
33.3972 14.3656 1.9578 255 40 40
33.3989 14.3619 1.9578 255 40 40
33.4007 14.3582 1.9578 255 40 40
33.4025 14.3546 1.9578 255 40 40
33.4042 14.3509 1.9578 255 40 40
33.4060 14.3472 1.9578 255 40 40
33.4077 14.3436 1.9578 255 40 40
33.4095 14.3399 1.9578 255 40 40
33.4112 14.3362 1.9578 255 40 40
33.4130 14.3326 1.9578 255 40 40
33.4147 14.3289 1.9578 255 40 40
33.4165 14.3252 1.9578 255 40 40
33.4182 14.3216 1.9578 255 40 40
33.4200 14.3179 1.9578 255 40 40
33.4217 14.3142 1.9578 255 40 40
33.4235 14.3105 1.9578 255 40 40
33.4253 14.3069 1.9578 255 40 40
33.4270 14.3032 1.9578 255 40 40
33.4288 14.2995 1.9578 255 40 40
33.4305 14.2959 1.9578 255 40 40
33.4323 14.2922 1.9578 255 40 40
33.4340 14.2885 1.9578 255 40 40
33.4358 14.2849 1.9578 255 40 40
33.4375 14.2812 1.9578 255 40 40
33.4393 14.2775 1.9578 255 40 40
33.4410 14.2739 1.9578 255 40 40
33.4428 14.2702 1.9578 255 40 40
33.4445 14.2665 1.9578 255 40 40
33.4463 14.2629 1.9578 255 40 40
33.4480 14.2592 1.9578 255 40 40
33.4498 14.2555 1.9578 255 40 40
33.4516 14.2519 1.9578 255 40 40
33.4533 14.2482 1.9578 255 40 40
33.4551 14.2445 1.9578 255 40 40
33.4568 14.2408 1.9578 255 40 40
33.4586 14.2372 1.9578 255 40 40
33.4603 14.2335 1.9578 255 40 40
33.4621 14.2298 1.9578 255 40 40
33.4638 14.2262 1.9578 255 40 40
33.4656 14.2225 1.9578 255 40 40
33.4673 14.2188 1.9578 255 40 40
33.4691 14.2152 1.9578 255 40 40
33.4708 14.2115 1.9578 255 40 40
33.4726 14.2078 1.9578 255 40 40
33.4744 14.2042 1.9578 255 40 40
33.4761 14.2005 1.9578 255 40 40
33.4779 14.1968 1.9578 255 40 40
33.4796 14.1932 1.9578 255 40 40
33.4814 14.1895 1.9578 255 40 40
33.4831 14.1858 1.9578 255 40 40
33.4849 14.1822 1.9578 255 40 40
33.4866 14.1785 1.9578 255 40 40
33.4884 14.1748 1.9578 255 40 40
33.4901 14.1711 1.9578 255 40 40
33.4919 14.1675 1.9578 255 40 40
33.4936 14.1638 1.9578 255 40 40
33.4954 14.1601 1.9578 255 40 40
33.4972 14.1565 1.9578 255 40 40
33.4989 14.1528 1.9578 255 40 40
33.5007 14.1491 1.9578 255 40 40
33.5024 14.1455 1.9578 255 40 40
33.5042 14.1418 1.9578 255 40 40
33.5059 14.1381 1.9578 255 40 40
33.5077 14.1345 1.9578 255 40 40
33.5094 14.1308 1.9578 255 40 40
33.5112 14.1271 1.9578 255 40 40
33.5129 14.1235 1.9578 255 40 40
33.5147 14.1198 1.9578 255 40 40
33.5164 14.1161 1.9578 255 40 40
33.5182 14.1125 1.9578 255 40 40
33.5199 14.1088 1.9578 255 40 40
33.5217 14.1051 1.9578 255 40 40
33.5235 14.1014 1.9578 255 40 40
33.5252 14.0978 1.9578 255 40 40
33.5270 14.0941 1.9578 255 40 40
33.5287 14.0904 1.9578 255 40 40
33.5305 14.0868 1.9578 255 40 40
33.5322 14.0831 1.9578 255 40 40
33.5340 14.0794 1.9578 255 40 40
33.5357 14.0758 1.9578 255 40 40
33.5375 14.0721 1.9578 255 40 40
33.5392 14.0684 1.9578 255 40 40
33.5410 14.0648 1.9578 255 40 40
33.5427 14.0611 1.9578 255 40 40
33.5445 14.0574 1.9578 255 40 40
33.5462 14.0538 1.9578 255 40 40
33.5480 14.0501 1.9578 255 40 40
33.5498 14.0464 1.9578 255 40 40
33.5515 14.0428 1.9578 255 40 40
33.5533 14.0391 1.9578 255 40 40
33.5550 14.0354 1.9578 255 40 40
33.5568 14.0317 1.9578 255 40 40
33.5585 14.0281 1.9578 255 40 40
33.5603 14.0244 1.9578 255 40 40
33.5620 14.0207 1.9578 255 40 40
33.5638 14.0171 1.9578 255 40 40
33.5655 14.0134 1.9578 255 40 40
33.5673 14.0097 1.9578 255 40 40
33.5690 14.0061 1.9578 255 40 40
33.5708 14.0024 1.9578 255 40 40
33.5726 13.9987 1.9578 255 40 40
33.5743 13.9951 1.9578 255 40 40
33.5761 13.9914 1.9578 255 40 40
33.5761 13.9914 1.9578 255 40 40
33.5800 13.9933 1.9578 255 40 40
33.5840 13.9952 1.9578 255 40 40
33.5880 13.9971 1.9578 255 40 40
33.5919 13.9990 1.9578 255 40 40
33.5959 14.0009 1.9578 255 40 40
33.5999 14.0028 1.9578 255 40 40
33.6038 14.0047 1.9578 255 40 40
33.6078 14.0066 1.9578 255 40 40
33.6118 14.0085 1.9578 255 40 40
33.6157 14.0104 1.9578 255 40 40
33.6197 14.0123 1.9578 255 40 40
33.6237 14.0141 1.9578 255 40 40
33.6276 14.0160 1.9578 255 40 40
33.6316 14.0179 1.9578 255 40 40
33.6356 14.0198 1.9578 255 40 40
33.6395 14.0217 1.9578 255 40 40
33.6435 14.0236 1.9578 255 40 40
33.6475 14.0255 1.9578 255 40 40
33.6514 14.0274 1.9578 255 40 40
33.6554 14.0293 1.9578 255 40 40
33.6594 14.0312 1.9578 255 40 40
33.6633 14.0331 1.9578 255 40 40
33.6673 14.0350 1.9578 255 40 40
33.6713 14.0369 1.9578 255 40 40
33.6753 14.0388 1.9578 255 40 40
33.6792 14.0407 1.9578 255 40 40
33.6832 14.0426 1.9578 255 40 40
33.6872 14.0445 1.9578 255 40 40
33.6911 14.0464 1.9578 255 40 40
33.6951 14.0483 1.9578 255 40 40
33.6991 14.0502 1.9578 255 40 40
33.7030 14.0521 1.9578 255 40 40
33.7070 14.0540 1.9578 255 40 40
33.7110 14.0559 1.9578 255 40 40
33.7149 14.0578 1.9578 255 40 40
33.7189 14.0597 1.9578 255 40 40
33.7229 14.0616 1.9578 255 40 40
33.7268 14.0635 1.9578 255 40 40
33.7308 14.0654 1.9578 255 40 40
33.7348 14.0673 1.9578 255 40 40
33.7387 14.0692 1.9578 255 40 40
33.7427 14.0710 1.9578 255 40 40
33.7467 14.0729 1.9578 255 40 40
33.7506 14.0748 1.9578 255 40 40
33.7546 14.0767 1.9578 255 40 40
33.7586 14.0786 1.9578 255 40 40
33.7625 14.0805 1.9578 255 40 40
33.7665 14.0824 1.9578 255 40 40
33.7705 14.0843 1.9578 255 40 40
33.7744 14.0862 1.9578 255 40 40
33.7784 14.0881 1.9578 255 40 40
33.7824 14.0900 1.9578 255 40 40
33.7863 14.0919 1.9578 255 40 40
33.7903 14.0938 1.9578 255 40 40
33.7943 14.0957 1.9578 255 40 40
33.7982 14.0976 1.9578 255 40 40
33.8022 14.0995 1.9578 255 40 40
33.8062 14.1014 1.9578 255 40 40
33.8102 14.1033 1.9578 255 40 40
33.8141 14.1052 1.9578 255 40 40
33.8181 14.1071 1.9578 255 40 40
33.8221 14.1090 1.9578 255 40 40
33.8260 14.1109 1.9578 255 40 40
33.8300 14.1128 1.9578 255 40 40
33.8340 14.1147 1.9578 255 40 40
33.8379 14.1166 1.9578 255 40 40
33.8419 14.1185 1.9578 255 40 40
33.8459 14.1204 1.9578 255 40 40
33.8498 14.1223 1.9578 255 40 40
33.8538 14.1242 1.9578 255 40 40
33.8578 14.1260 1.9578 255 40 40
33.8617 14.1279 1.9578 255 40 40
33.8657 14.1298 1.9578 255 40 40
33.8697 14.1317 1.9578 255 40 40
33.8736 14.1336 1.9578 255 40 40
33.8776 14.1355 1.9578 255 40 40
33.8816 14.1374 1.9578 255 40 40
33.8855 14.1393 1.9578 255 40 40
33.8895 14.1412 1.9578 255 40 40
33.8935 14.1431 1.9578 255 40 40
33.8974 14.1450 1.9578 255 40 40
33.9014 14.1469 1.9578 255 40 40
33.9054 14.1488 1.9578 255 40 40
33.9093 14.1507 1.9578 255 40 40
33.9133 14.1526 1.9578 255 40 40
33.9173 14.1545 1.9578 255 40 40
33.9212 14.1564 1.9578 255 40 40
33.9252 14.1583 1.9578 255 40 40
33.9292 14.1602 1.9578 255 40 40
33.9331 14.1621 1.9578 255 40 40
33.9371 14.1640 1.9578 255 40 40
33.9411 14.1659 1.9578 255 40 40
33.9450 14.1678 1.9578 255 40 40
33.9490 14.1697 1.9578 255 40 40
33.9530 14.1716 1.9578 255 40 40
33.9570 14.1735 1.9578 255 40 40
33.9609 14.1754 1.9578 255 40 40
33.9649 14.1773 1.9578 255 40 40
33.9689 14.1792 1.9578 255 40 40
33.9728 14.1810 1.9578 255 40 40
33.9768 14.1829 1.9578 255 40 40
33.9808 14.1848 1.9578 255 40 40
33.9847 14.1867 1.9578 255 40 40
33.9887 14.1886 1.9578 255 40 40
33.9927 14.1905 1.9578 255 40 40
33.9966 14.1924 1.9578 255 40 40
34.0006 14.1943 1.9578 255 40 40
34.0046 14.1962 1.9578 255 40 40
34.0085 14.1981 1.9578 255 40 40
34.0125 14.2000 1.9578 255 40 40
34.0165 14.2019 1.9578 255 40 40
34.0204 14.2038 1.9578 255 40 40
34.0244 14.2057 1.9578 255 40 40
34.0284 14.2076 1.9578 255 40 40
34.0323 14.2095 1.9578 255 40 40
34.0363 14.2114 1.9578 255 40 40
34.0403 14.2133 1.9578 255 40 40
34.0442 14.2152 1.9578 255 40 40
34.0482 14.2171 1.9578 255 40 40
34.0522 14.2190 1.9578 255 40 40
34.0561 14.2209 1.9578 255 40 40
34.0601 14.2228 1.9578 255 40 40
34.0641 14.2247 1.9578 255 40 40
34.0680 14.2266 1.9578 255 40 40
34.0720 14.2285 1.9578 255 40 40
34.0760 14.2304 1.9578 255 40 40
34.0799 14.2323 1.9578 255 40 40
34.0839 14.2342 1.9578 255 40 40
34.0879 14.2360 1.9578 255 40 40
34.0919 14.2379 1.9578 255 40 40
34.0958 14.2398 1.9578 255 40 40
34.0998 14.2417 1.9578 255 40 40
34.1038 14.2436 1.9578 255 40 40
34.1077 14.2455 1.9578 255 40 40
34.1117 14.2474 1.9578 255 40 40
34.1157 14.2493 1.9578 255 40 40
34.1196 14.2512 1.9578 255 40 40
34.1236 14.2531 1.9578 255 40 40
34.1276 14.2550 1.9578 255 40 40
34.1315 14.2569 1.9578 255 40 40
34.1355 14.2588 1.9578 255 40 40
34.1395 14.2607 1.9578 255 40 40
34.1434 14.2626 1.9578 255 40 40
34.1474 14.2645 1.9578 255 40 40
34.1514 14.2664 1.9578 255 40 40
34.1553 14.2683 1.9578 255 40 40
34.1593 14.2702 1.9578 255 40 40
34.1633 14.2721 1.9578 255 40 40
34.1672 14.2740 1.9578 255 40 40
34.1712 14.2759 1.9578 255 40 40
34.1752 14.2778 1.9578 255 40 40
34.1791 14.2797 1.9578 255 40 40
34.1831 14.2816 1.9578 255 40 40
34.1871 14.2835 1.9578 255 40 40
34.1910 14.2854 1.9578 255 40 40
34.1950 14.2873 1.9578 255 40 40
34.1990 14.2892 1.9578 255 40 40
34.2029 14.2910 1.9578 255 40 40
34.2069 14.2929 1.9578 255 40 40
34.2109 14.2948 1.9578 255 40 40
34.2148 14.2967 1.9578 255 40 40
34.2188 14.2986 1.9578 255 40 40
34.2228 14.3005 1.9578 255 40 40
34.2267 14.3024 1.9578 255 40 40
34.2307 14.3043 1.9578 255 40 40
34.2307 14.3043 1.9578 255 40 40
34.2290 14.3080 1.9578 255 40 40
34.2272 14.3117 1.9578 255 40 40
34.2255 14.3153 1.9578 255 40 40
34.2237 14.3190 1.9578 255 40 40
34.2220 14.3227 1.9578 255 40 40
34.2202 14.3263 1.9578 255 40 40
34.2184 14.3300 1.9578 255 40 40
34.2167 14.3337 1.9578 255 40 40
34.2149 14.3373 1.9578 255 40 40
34.2132 14.3410 1.9578 255 40 40
34.2114 14.3447 1.9578 255 40 40
34.2097 14.3483 1.9578 255 40 40
34.2079 14.3520 1.9578 255 40 40
34.2062 14.3557 1.9578 255 40 40
34.2044 14.3594 1.9578 255 40 40
34.2027 14.3630 1.9578 255 40 40
34.2009 14.3667 1.9578 255 40 40
34.1992 14.3704 1.9578 255 40 40
34.1974 14.3740 1.9578 255 40 40
34.1956 14.3777 1.9578 255 40 40
34.1939 14.3814 1.9578 255 40 40
34.1921 14.3850 1.9578 255 40 40
34.1904 14.3887 1.9578 255 40 40
34.1886 14.3924 1.9578 255 40 40
34.1869 14.3960 1.9578 255 40 40
34.1851 14.3997 1.9578 255 40 40
34.1834 14.4034 1.9578 255 40 40
34.1816 14.4070 1.9578 255 40 40
34.1799 14.4107 1.9578 255 40 40
34.1781 14.4144 1.9578 255 40 40
34.1764 14.4180 1.9578 255 40 40
34.1746 14.4217 1.9578 255 40 40
34.1728 14.4254 1.9578 255 40 40
34.1711 14.4291 1.9578 255 40 40
34.1693 14.4327 1.9578 255 40 40
34.1676 14.4364 1.9578 255 40 40
34.1658 14.4401 1.9578 255 40 40
34.1641 14.4437 1.9578 255 40 40
34.1623 14.4474 1.9578 255 40 40
34.1606 14.4511 1.9578 255 40 40
34.1588 14.4547 1.9578 255 40 40
34.1571 14.4584 1.9578 255 40 40
34.1553 14.4621 1.9578 255 40 40
34.1536 14.4657 1.9578 255 40 40
34.1518 14.4694 1.9578 255 40 40
34.1501 14.4731 1.9578 255 40 40
34.1483 14.4767 1.9578 255 40 40
34.1465 14.4804 1.9578 255 40 40
34.1448 14.4841 1.9578 255 40 40
34.1430 14.4878 1.9578 255 40 40
34.1413 14.4914 1.9578 255 40 40
34.1395 14.4951 1.9578 255 40 40
34.1378 14.4988 1.9578 255 40 40
34.1360 14.5024 1.9578 255 40 40
34.1343 14.5061 1.9578 255 40 40
34.1325 14.5098 1.9578 255 40 40
34.1308 14.5134 1.9578 255 40 40
34.1290 14.5171 1.9578 255 40 40
34.1273 14.5208 1.9578 255 40 40
34.1255 14.5244 1.9578 255 40 40
34.1237 14.5281 1.9578 255 40 40
34.1220 14.5318 1.9578 255 40 40
34.1202 14.5354 1.9578 255 40 40
34.1185 14.5391 1.9578 255 40 40
34.1167 14.5428 1.9578 255 40 40
34.1150 14.5464 1.9578 255 40 40
34.1132 14.5501 1.9578 255 40 40
34.1115 14.5538 1.9578 255 40 40
34.1097 14.5575 1.9578 255 40 40
34.1080 14.5611 1.9578 255 40 40
34.1062 14.5648 1.9578 255 40 40
34.1045 14.5685 1.9578 255 40 40
34.1027 14.5721 1.9578 255 40 40
34.1009 14.5758 1.9578 255 40 40
34.0992 14.5795 1.9578 255 40 40
34.0974 14.5831 1.9578 255 40 40
34.0957 14.5868 1.9578 255 40 40
34.0939 14.5905 1.9578 255 40 40
34.0922 14.5941 1.9578 255 40 40
34.0904 14.5978 1.9578 255 40 40
34.0887 14.6015 1.9578 255 40 40
34.0869 14.6051 1.9578 255 40 40
34.0852 14.6088 1.9578 255 40 40
34.0834 14.6125 1.9578 255 40 40
34.0817 14.6161 1.9578 255 40 40
34.0799 14.6198 1.9578 255 40 40
34.0782 14.6235 1.9578 255 40 40
34.0764 14.6272 1.9578 255 40 40
34.0746 14.6308 1.9578 255 40 40
34.0729 14.6345 1.9578 255 40 40
34.0711 14.6382 1.9578 255 40 40
34.0694 14.6418 1.9578 255 40 40
34.0676 14.6455 1.9578 255 40 40
34.0659 14.6492 1.9578 255 40 40
34.0641 14.6528 1.9578 255 40 40
34.0624 14.6565 1.9578 255 40 40
34.0606 14.6602 1.9578 255 40 40
34.0589 14.6638 1.9578 255 40 40
34.0571 14.6675 1.9578 255 40 40
34.0554 14.6712 1.9578 255 40 40
34.0536 14.6748 1.9578 255 40 40
34.0518 14.6785 1.9578 255 40 40
34.0501 14.6822 1.9578 255 40 40
34.0483 14.6858 1.9578 255 40 40
34.0466 14.6895 1.9578 255 40 40
34.0448 14.6932 1.9578 255 40 40
34.0431 14.6969 1.9578 255 40 40
34.0413 14.7005 1.9578 255 40 40
34.0396 14.7042 1.9578 255 40 40
34.0378 14.7079 1.9578 255 40 40
34.0361 14.7115 1.9578 255 40 40
34.0343 14.7152 1.9578 255 40 40
34.0326 14.7189 1.9578 255 40 40
34.0308 14.7225 1.9578 255 40 40
34.0291 14.7262 1.9578 255 40 40
34.0273 14.7299 1.9578 255 40 40
34.0255 14.7335 1.9578 255 40 40
34.0238 14.7372 1.9578 255 40 40
34.0220 14.7409 1.9578 255 40 40
34.0203 14.7445 1.9578 255 40 40
34.0185 14.7482 1.9578 255 40 40
34.0168 14.7519 1.9578 255 40 40
34.0150 14.7555 1.9578 255 40 40
34.0133 14.7592 1.9578 255 40 40
34.0115 14.7629 1.9578 255 40 40
34.0098 14.7666 1.9578 255 40 40
34.0080 14.7702 1.9578 255 40 40
34.0063 14.7739 1.9578 255 40 40
34.0045 14.7776 1.9578 255 40 40
34.0027 14.7812 1.9578 255 40 40
34.0010 14.7849 1.9578 255 40 40
33.9992 14.7886 1.9578 255 40 40
33.9975 14.7922 1.9578 255 40 40
33.9957 14.7959 1.9578 255 40 40
33.9940 14.7996 1.9578 255 40 40
33.9922 14.8032 1.9578 255 40 40
33.9905 14.8069 1.9578 255 40 40
33.9887 14.8106 1.9578 255 40 40
33.9870 14.8142 1.9578 255 40 40
33.9852 14.8179 1.9578 255 40 40
33.9835 14.8216 1.9578 255 40 40
33.9817 14.8252 1.9578 255 40 40
33.9799 14.8289 1.9578 255 40 40
33.9782 14.8326 1.9578 255 40 40
33.9764 14.8363 1.9578 255 40 40
33.9747 14.8399 1.9578 255 40 40
33.9729 14.8436 1.9578 255 40 40
33.9712 14.8473 1.9578 255 40 40
33.9694 14.8509 1.9578 255 40 40
33.9677 14.8546 1.9578 255 40 40
33.9659 14.8583 1.9578 255 40 40
33.9642 14.8619 1.9578 255 40 40
33.9624 14.8656 1.9578 255 40 40
33.9607 14.8693 1.9578 255 40 40
33.9589 14.8729 1.9578 255 40 40
33.9572 14.8766 1.9578 255 40 40
33.9554 14.8803 1.9578 255 40 40
33.9536 14.8839 1.9578 255 40 40
33.9519 14.8876 1.9578 255 40 40
33.9501 14.8913 1.9578 255 40 40
33.9484 14.8950 1.9578 255 40 40
33.9466 14.8986 1.9578 255 40 40
33.9449 14.9023 1.9578 255 40 40
33.9431 14.9060 1.9578 255 40 40
33.9414 14.9096 1.9578 255 40 40
33.9414 14.9096 0.2264 255 40 40
33.9414 14.9096 0.2369 255 40 40
33.9414 14.9096 0.2474 255 40 40
33.9414 14.9096 0.2579 255 40 40
33.9414 14.9096 0.2684 255 40 40
33.9414 14.9096 0.2789 255 40 40
33.9414 14.9096 0.2894 255 40 40
33.9414 14.9096 0.2999 255 40 40
33.9414 14.9096 0.3104 255 40 40
33.9414 14.9096 0.3209 255 40 40
33.9414 14.9096 0.3314 255 40 40
33.9414 14.9096 0.3418 255 40 40
33.9414 14.9096 0.3523 255 40 40
33.9414 14.9096 0.3628 255 40 40
33.9414 14.9096 0.3733 255 40 40
33.9414 14.9096 0.3838 255 40 40
33.9414 14.9096 0.3943 255 40 40
33.9414 14.9096 0.4048 255 40 40
33.9414 14.9096 0.4153 255 40 40
33.9414 14.9096 0.4258 255 40 40
33.9414 14.9096 0.4363 255 40 40
33.9414 14.9096 0.4468 255 40 40
33.9414 14.9096 0.4573 255 40 40
33.9414 14.9096 0.4678 255 40 40
33.9414 14.9096 0.4783 255 40 40
33.9414 14.9096 0.4888 255 40 40
33.9414 14.9096 0.4992 255 40 40
33.9414 14.9096 0.5097 255 40 40
33.9414 14.9096 0.5202 255 40 40
33.9414 14.9096 0.5307 255 40 40
33.9414 14.9096 0.5412 255 40 40
33.9414 14.9096 0.5517 255 40 40
33.9414 14.9096 0.5622 255 40 40
33.9414 14.9096 0.5727 255 40 40
33.9414 14.9096 0.5832 255 40 40
33.9414 14.9096 0.5937 255 40 40
33.9414 14.9096 0.6042 255 40 40
33.9414 14.9096 0.6147 255 40 40
33.9414 14.9096 0.6252 255 40 40
33.9414 14.9096 0.6357 255 40 40
33.9414 14.9096 0.6462 255 40 40
33.9414 14.9096 0.6566 255 40 40
33.9414 14.9096 0.6671 255 40 40
33.9414 14.9096 0.6776 255 40 40
33.9414 14.9096 0.6881 255 40 40
33.9414 14.9096 0.6986 255 40 40
33.9414 14.9096 0.7091 255 40 40
33.9414 14.9096 0.7196 255 40 40
33.9414 14.9096 0.7301 255 40 40
33.9414 14.9096 0.7406 255 40 40
33.9414 14.9096 0.7511 255 40 40
33.9414 14.9096 0.7616 255 40 40
33.9414 14.9096 0.7721 255 40 40
33.9414 14.9096 0.7826 255 40 40
33.9414 14.9096 0.7931 255 40 40
33.9414 14.9096 0.8035 255 40 40
33.9414 14.9096 0.8140 255 40 40
33.9414 14.9096 0.8245 255 40 40
33.9414 14.9096 0.8350 255 40 40
33.9414 14.9096 0.8455 255 40 40
33.9414 14.9096 0.8560 255 40 40
33.9414 14.9096 0.8665 255 40 40
33.9414 14.9096 0.8770 255 40 40
33.9414 14.9096 0.8875 255 40 40
33.9414 14.9096 0.8980 255 40 40
33.9414 14.9096 0.9085 255 40 40
33.9414 14.9096 0.9190 255 40 40
33.9414 14.9096 0.9295 255 40 40
33.9414 14.9096 0.9400 255 40 40
33.9414 14.9096 0.9505 255 40 40
33.9414 14.9096 0.9609 255 40 40
33.9414 14.9096 0.9714 255 40 40
33.9414 14.9096 0.9819 255 40 40
33.9414 14.9096 0.9924 255 40 40
33.9414 14.9096 1.0029 255 40 40
33.9414 14.9096 1.0134 255 40 40
33.9414 14.9096 1.0239 255 40 40
33.9414 14.9096 1.0344 255 40 40
33.9414 14.9096 1.0449 255 40 40
33.9414 14.9096 1.0554 255 40 40
33.9414 14.9096 1.0659 255 40 40
33.9414 14.9096 1.0764 255 40 40
33.9414 14.9096 1.0869 255 40 40
33.9414 14.9096 1.0974 255 40 40
33.9414 14.9096 1.1078 255 40 40
33.9414 14.9096 1.1183 255 40 40
33.9414 14.9096 1.1288 255 40 40
33.9414 14.9096 1.1393 255 40 40
33.9414 14.9096 1.1498 255 40 40
33.9414 14.9096 1.1603 255 40 40
33.9414 14.9096 1.1708 255 40 40
33.9414 14.9096 1.1813 255 40 40
33.9414 14.9096 1.1918 255 40 40
33.9414 14.9096 1.2023 255 40 40
33.9414 14.9096 1.2128 255 40 40
33.9414 14.9096 1.2233 255 40 40
33.9414 14.9096 1.2338 255 40 40
33.9414 14.9096 1.2443 255 40 40
33.9414 14.9096 1.2548 255 40 40
33.9414 14.9096 1.2652 255 40 40
33.9414 14.9096 1.2757 255 40 40
33.9414 14.9096 1.2862 255 40 40
33.9414 14.9096 1.2967 255 40 40
33.9414 14.9096 1.3072 255 40 40
33.9414 14.9096 1.3177 255 40 40
33.9414 14.9096 1.3282 255 40 40
33.9414 14.9096 1.3387 255 40 40
33.9414 14.9096 1.3492 255 40 40
33.9414 14.9096 1.3597 255 40 40
33.9414 14.9096 1.3702 255 40 40
33.9414 14.9096 1.3807 255 40 40
33.9414 14.9096 1.3912 255 40 40
33.9414 14.9096 1.4017 255 40 40
33.9414 14.9096 1.4122 255 40 40
33.9414 14.9096 1.4226 255 40 40
33.9414 14.9096 1.4331 255 40 40
33.9414 14.9096 1.4436 255 40 40
