ply
format ascii 1.0
element vertex 1522
property float x
property float y
property float z
property uchar red
property uchar green
property uchar blue
end_header
1.3471 -0.1031 1.4728 60 60 60
-1.3957 -54.0437 2.8249 60 60 60
1.6611 -4.6660 0.0528 60 60 60
1.9755 4.2814 0.1953 60 60 60
0.6857 -0.0010 1.8372 60 60 60
1.5404 5.4026 0.2763 60 60 60
0.3639 0.3101 1.5152 60 60 60
0.7366 7.9173 0.3914 60 60 60
-25.5012 -3.7145 -0.0218 60 60 60
0.7212 -0.0009 1.8377 60 60 60
1.2281 4.1404 -0.0146 60 60 60
-10.5102 -7.9002 0.7797 60 60 60
2.2400 7.5003 0.3973 60 60 60
14.9043 -27.0998 1.3306 60 60 60
1.8095 11.4286 3.4941 60 60 60
1.6836 -3.5660 0.0417 60 60 60
-14.8201 4.4655 1.8681 60 60 60
2.7463 -5.0379 0.0618 60 60 60
-0.6701 5.5839 0.2512 60 60 60
2.7713 -3.0180 0.0357 60 60 60
1.2011 0.3977 1.5277 60 60 60
5.6882 6.8005 0.5632 60 60 60
0.7248 -0.0009 1.8377 60 60 60
0.6281 -0.0012 1.8365 60 60 60
-2.3023 -3.2354 0.0265 60 60 60
0.8560 -0.0003 1.8393 60 60 60
-4.1954 -8.5719 0.9838 60 60 60
-2.6051 -8.7015 0.3349 60 60 60
-3.2191 16.2646 5.2068 60 60 60
-6.3513 9.2466 0.4218 60 60 60
1.6523 11.4834 2.6887 60 60 60
1.4926 -5.9672 0.0570 60 60 60
1.9422 -3.4736 0.0409 60 60 60
0.6761 -0.0010 1.8371 60 60 60
-2.3786 -2.8221 0.0106 60 60 60
-0.1576 4.1704 -0.0189 60 60 60
0.2982 0.2688 1.5164 60 60 60
-1.7274 -19.6743 2.2430 60 60 60
-12.0330 13.4061 5.3057 60 60 60
5.8807 -1.4466 0.0141 60 60 60
-7.0248 -18.8991 4.3105 60 60 60
0.0034 -0.2431 1.4943 60 60 60
4.4739 -16.6361 -0.3448 60 60 60
8.9805 -4.6033 0.0484 60 60 60
-3.8919 -36.4855 1.7348 60 60 60
-1.6726 2.8933 -0.0079 60 60 60
33.9035 26.6344 6.1569 60 60 60
0.7314 -0.0008 1.8378 60 60 60
1.2570 -0.4193 1.5404 60 60 60
-5.0773 -4.5885 0.0046 60 60 60
0.7021 -0.0009 1.8374 60 60 60
1.1151 0.3758 1.5136 60 60 60
-10.9197 -7.6887 0.1091 60 60 60
1.7762 3.6963 -0.0022 60 60 60
0.8800 -0.0002 1.8395 60 60 60
5.7815 1.8748 0.0161 60 60 60
23.1027 19.0968 4.1485 60 60 60
0.0669 -0.2105 1.4997 60 60 60
9.1173 -9.6872 0.0760 60 60 60
4.7815 -2.2811 0.0156 60 60 60
-1.2998 4.4791 0.1103 60 60 60
1.5480 9.9273 0.4738 60 60 60
1.1068 0.3558 1.5069 60 60 60
-14.5748 4.7827 1.4890 60 60 60
0.3021 8.0306 0.3865 60 60 60
3.0996 11.2747 2.3837 60 60 60
8.0318 -10.8576 0.3729 60 60 60
0.4957 15.8913 3.0566 60 60 60
5.1064 1.5455 0.0185 60 60 60
2.3051 -4.4436 0.0531 60 60 60
-1.9659 2.6463 -0.0140 60 60 60
-3.0717 -8.7143 0.9915 60 60 60
-3.2714 -50.0110 2.8040 60 60 60
3.1564 4.7559 0.2584 60 60 60
0.7147 -0.0009 1.8376 60 60 60
-5.2713 5.9080 0.2154 60 60 60
14.2266 -74.0113 2.8147 60 60 60
-35.7538 11.6741 8.2236 60 60 60
0.2324 0.1700 1.5258 60 60 60
2.3751 4.7358 0.2467 60 60 60
25.5795 -40.4448 -0.1131 60 60 60
-6.0350 11.8861 1.7587 60 60 60
-6.0900 12.3657 2.7462 60 60 60
3.7237 11.2315 2.6445 60 60 60
1.1974 -0.2972 1.5090 60 60 60
0.8566 -0.0003 1.8393 60 60 60
1.3202 0.0803 1.4825 60 60 60
-0.9779 -8.2969 0.0282 60 60 60
-15.8161 4.3389 2.2704 60 60 60
0.6911 4.3530 0.1733 60 60 60
0.7675 -0.0007 1.8383 60 60 60
-3.7115 13.0775 3.0008 60 60 60
-6.9342 0.6464 -0.0046 60 60 60
41.5772 -49.4674 11.0526 60 60 60
-14.3548 -17.5815 3.7292 60 60 60
-0.2309 7.1841 0.3661 60 60 60
0.6914 -0.0010 1.8373 60 60 60
4.5559 -2.6518 0.0191 60 60 60
0.7947 -0.0006 1.8386 60 60 60
0.7153 -0.0009 1.8376 60 60 60
1.5232 -0.3677 1.3939 60 60 60
-43.2083 -49.7394 1.0716 60 60 60
1.9240 4.2916 0.1986 60 60 60
1.7372 4.9837 0.2465 60 60 60
5.4002 2.8272 0.0088 60 60 60
-2.0613 6.3519 0.2923 60 60 60
0.4129 -0.0357 1.6151 60 60 60
2.3559 0.5989 1.0007 60 60 60
0.0250 0.2525 1.4939 60 60 60
15.2051 -22.0531 4.4313 60 60 60
-7.3392 8.9105 0.3902 60 60 60
-20.6547 -17.5341 3.5516 60 60 60
1.2689 -0.2212 1.4858 60 60 60
0.6558 -0.0011 1.8369 60 60 60
-37.4497 -1.7717 7.2594 60 60 60
6.0243 2.5488 0.0125 60 60 60
-13.0737 17.5500 2.8038 60 60 60
0.0662 0.1263 1.5009 60 60 60
6.2973 9.2888 0.7392 60 60 60
-4.9762 -0.8675 -0.0019 60 60 60
6.2523 5.7674 0.4113 60 60 60
-22.4929 14.2087 5.0509 60 60 60
-6.8735 -33.2876 1.0334 60 60 60
2.9944 -19.7298 4.9248 60 60 60
0.6905 -0.0010 1.8373 60 60 60
1.2882 0.0910 1.4803 60 60 60
-6.6981 -1.6624 -0.0002 60 60 60
0.2399 -0.3551 1.5067 60 60 60
4.7040 -7.6702 0.0649 60 60 60
-0.6937 -4.3793 0.0434 60 60 60
1.2836 -0.3741 1.5406 60 60 60
-0.4219 4.3714 0.1199 60 60 60
-2.3363 -8.7602 0.5552 60 60 60
1.4015 -5.4940 0.0597 60 60 60
1.1851 0.4163 1.5281 60 60 60
0.1595 6.0450 0.3020 60 60 60
0.6262 -4.8375 0.0480 60 60 60
8.9915 9.0642 0.5368 60 60 60
-24.8619 13.5746 1.1879 60 60 60
0.5928 -10.1255 0.8370 60 60 60
5.6673 -0.1041 0.0218 60 60 60
-5.2994 -4.3240 0.0061 60 60 60
11.7181 -20.0838 5.7494 60 60 60
-6.3184 -2.7023 0.0029 60 60 60
0.0211 -0.3640 1.4852 60 60 60
0.6588 -0.0011 1.8369 60 60 60
-11.8302 -3.0828 -0.0084 60 60 60
3.5775 -9.6900 0.0502 60 60 60
2.9659 8.1941 0.4291 60 60 60
3.1625 -3.9828 0.0496 60 60 60
-0.6331 5.5761 0.2552 60 60 60
1.1599 0.3195 1.5133 60 60 60
1.6249 11.5173 1.8828 60 60 60
4.6402 5.2633 2.8546 60 60 60
2.3914 5.5368 0.3054 60 60 60
-9.5943 -8.0025 0.8201 60 60 60
0.7153 -0.0009 1.8376 60 60 60
-12.1578 -29.1965 0.4904 60 60 60
0.8821 -0.0002 1.8396 60 60 60
-42.6246 -15.5050 10.4160 60 60 60
4.7601 -3.5088 0.0403 60 60 60
1.2048 -0.4515 1.4754 60 60 60
0.8121 -0.0005 1.8388 60 60 60
1.2257 -0.2663 1.4831 60 60 60
0.6058 -3.0179 0.0266 60 60 60
1.5489 -13.6835 -0.1908 60 60 60
-12.1193 -2.0621 -0.0092 60 60 60
-12.7004 13.1169 4.4637 60 60 60
6.0231 10.6269 1.7695 60 60 60
-17.1852 11.3271 0.3581 60 60 60
0.8399 -0.0004 1.8391 60 60 60
4.4523 3.8242 0.0788 60 60 60
2.5071 6.3653 2.2938 60 60 60
0.7335 -0.0008 1.8378 60 60 60
0.6761 -0.0010 1.8371 60 60 60
0.8994 -0.0002 1.8397 60 60 60
-42.0772 -14.2006 10.2557 60 60 60
-0.5019 -4.1161 0.0437 60 60 60
-3.0669 16.2863 3.9970 60 60 60
0.8737 -0.0003 1.8395 60 60 60
-3.6017 -6.6411 0.0205 60 60 60
22.0805 19.3563 3.4463 60 60 60
-0.2795 -10.0354 0.6254 60 60 60
0.7902 -0.0006 1.8385 60 60 60
1.3560 11.4900 3.7831 60 60 60
3.4709 -3.3828 0.0410 60 60 60
8.5355 9.0688 0.8575 60 60 60
-4.5440 11.3217 1.1605 60 60 60
-30.3576 16.0723 3.5095 60 60 60
-19.2129 3.9888 1.8753 60 60 60
2.9424 2.9864 0.0082 60 60 60
6.1749 -23.5397 1.0047 60 60 60
-21.4708 15.3799 3.1040 60 60 60
2.3378 6.0826 0.3343 60 60 60
-1.5881 10.3841 0.4621 60 60 60
1.1103 0.3731 1.4803 60 60 60
-0.5127 3.5604 -0.0190 60 60 60
-6.1671 -0.4715 0.0005 60 60 60
1.0586 -0.4894 1.4817 60 60 60
5.5520 3.6996 0.1279 60 60 60
-36.2919 7.6791 8.1429 60 60 60
2.8329 -7.5954 0.0645 60 60 60
0.8118 -0.0005 1.8388 60 60 60
0.0284 -0.3773 1.4857 60 60 60
0.9036 -0.0002 1.8398 60 60 60
-6.4187 11.6910 0.8005 60 60 60
-0.0599 6.5658 0.3322 60 60 60
0.7317 15.8705 2.6722 60 60 60
-5.0954 -3.4116 0.0103 60 60 60
5.6264 0.7088 0.0222 60 60 60
-11.4778 17.3346 2.7375 60 60 60
0.7275 -0.0008 1.8378 60 60 60
1.4418 4.4228 0.2070 60 60 60
-5.5978 -24.0976 4.7671 60 60 60
-2.9044 -3.1414 0.0168 60 60 60
0.8683 -0.0003 1.8394 60 60 60
-11.0279 -20.3402 2.5523 60 60 60
-0.5591 3.0760 -0.0082 60 60 60
6.5518 -20.7563 0.5673 60 60 60
0.8554 -0.0003 1.8393 60 60 60
13.5012 -11.1628 0.2707 60 60 60
3.6608 -4.5047 0.0565 60 60 60
0.8240 -0.0005 1.8389 60 60 60
-0.6776 4.0558 -0.0275 60 60 60
2.8922 3.3428 0.0021 60 60 60
0.6711 -0.0011 1.8371 60 60 60
0.2505 -0.2350 1.5168 60 60 60
-1.2950 -2.7871 0.0242 60 60 60
0.0356 0.4155 1.4710 60 60 60
-35.1306 -51.6279 3.8674 60 60 60
-12.3741 17.4659 2.2648 60 60 60
0.1283 -7.4007 0.0478 60 60 60
0.2580 -7.3928 0.0488 60 60 60
-7.9281 6.5537 0.2924 60 60 60
-0.4985 16.0599 1.5946 60 60 60
2.1109 -3.8893 0.0525 60 60 60
-50.3281 -25.9887 0.2530 60 60 60
-0.8782 -3.0169 0.0303 60 60 60
12.3260 14.3938 3.8031 60 60 60
0.3621 -0.3939 1.5088 60 60 60
-3.8105 16.3622 3.6427 60 60 60
10.2140 -21.9661 3.7049 60 60 60
1.7700 3.4701 -0.0057 60 60 60
4.1361 2.3146 0.0118 60 60 60
-24.4604 14.5783 3.9069 60 60 60
-26.3807 3.4547 -0.0368 60 60 60
10.9401 -21.5376 5.3663 60 60 60
0.7484 -0.0007 1.8380 60 60 60
-10.9882 -28.2805 -0.1854 60 60 60
1.2496 -9.2151 0.0305 60 60 60
-4.5623 -0.7425 -0.0083 60 60 60
-4.2576 -1.7899 -0.0017 60 60 60
-4.5010 1.2337 -0.0132 60 60 60
1.2496 -3.6649 0.0476 60 60 60
-6.5411 12.0398 0.7719 60 60 60
-1.5420 -3.1545 0.0217 60 60 60
1.0815 0.4993 1.4782 60 60 60
0.7460 -0.0008 1.8380 60 60 60
-0.3327 -4.8147 0.0370 60 60 60
-8.4672 -19.1552 3.9373 60 60 60
-16.9464 13.5931 4.9844 60 60 60
0.8653 -0.0003 1.8394 60 60 60
-22.7716 -19.9259 0.1359 60 60 60
-10.8671 11.3605 0.6683 60 60 60
-0.6376 6.0166 0.2901 60 60 60
-2.7591 16.2577 3.9778 60 60 60
-4.3093 16.6748 1.2500 60 60 60
1.5137 7.8269 0.3789 60 60 60
0.5894 -10.0598 0.3675 60 60 60
1.0470 -4.4635 0.0536 60 60 60
-6.0033 12.3564 2.4095 60 60 60
-2.8885 -6.9554 0.0232 60 60 60
-0.3972 2.9495 -0.0109 60 60 60
-30.3359 16.7834 5.1810 60 60 60
0.7681 -0.0007 1.8383 60 60 60
1.1107 -0.4489 1.4794 60 60 60
7.5137 6.4291 0.3841 60 60 60
4.8057 -2.8586 0.0251 60 60 60
1.2920 -3.6640 0.0440 60 60 60
6.4223 -14.1083 -0.1630 60 60 60
-1.2076 -9.3856 0.0225 60 60 60
0.8643 0.5563 1.4774 60 60 60
-5.2746 -4.3590 0.0053 60 60 60
-11.8006 4.4677 -0.0275 60 60 60
-3.8196 -3.3162 0.0123 60 60 60
0.9126 -0.0001 1.8399 60 60 60
0.5609 15.9124 2.3123 60 60 60
0.6385 -0.0012 1.8366 60 60 60
-6.0799 7.6296 0.3595 60 60 60
9.1328 6.8082 0.3990 60 60 60
1.9265 -5.8422 0.0619 60 60 60
0.9117 -0.0001 1.8399 60 60 60
1.1826 -0.3680 1.4955 60 60 60
-37.3148 -1.1029 7.2415 60 60 60
9.4146 -24.8057 -0.3606 60 60 60
2.6614 7.3470 0.3950 60 60 60
-3.3780 -4.4627 0.0092 60 60 60
-0.0760 15.9723 2.7052 60 60 60
0.3741 0.2674 1.5149 60 60 60
0.7481 -0.0008 1.8380 60 60 60
0.7186 -0.0009 1.8377 60 60 60
0.3216 0.3308 1.5098 60 60 60
0.7622 -0.0007 1.8382 60 60 60
3.8688 -4.8871 0.0612 60 60 60
0.7622 -0.0007 1.8382 60 60 60
3.1658 3.1176 0.0023 60 60 60
6.8068 6.4912 1.7254 60 60 60
0.1287 0.3750 1.4875 60 60 60
0.4184 -0.4292 1.5001 60 60 60
-4.0474 -7.5027 0.0152 60 60 60
-3.8912 -4.7832 0.0060 60 60 60
-6.8261 12.4560 2.7857 60 60 60
-15.4337 17.8141 2.9028 60 60 60
5.7526 1.9663 0.0155 60 60 60
4.4149 -3.3211 0.0405 60 60 60
1.2925 0.2231 1.4742 60 60 60
-3.2955 7.4876 0.3718 60 60 60
0.8318 -0.0004 1.8390 60 60 60
0.6669 -4.2211 0.0479 60 60 60
-3.9592 16.3459 5.2778 60 60 60
-0.1889 -3.4498 0.0412 60 60 60
-8.1398 12.5788 3.9506 60 60 60
-3.8903 2.7283 -0.0153 60 60 60
-6.9113 1.0078 -0.0075 60 60 60
0.8318 -0.0004 1.8390 60 60 60
1.6610 4.1218 0.1767 60 60 60
-35.4314 13.4482 7.3448 60 60 60
0.7684 -0.0007 1.8383 60 60 60
-0.2475 -3.9231 0.0333 60 60 60
-9.0923 5.9944 0.2105 60 60 60
0.2555 -0.1385 1.5316 60 60 60
-0.4536 -10.0494 0.8636 60 60 60
0.8482 -0.0004 1.8392 60 60 60
1.9891 10.8371 1.3602 60 60 60
6.1465 -3.2197 0.0245 60 60 60
1.3353 4.1631 0.0813 60 60 60
0.7858 -0.0006 1.8385 60 60 60
0.4901 3.9801 -0.0147 60 60 60
-5.0673 11.3550 0.8556 60 60 60
0.8527 -0.0003 1.8392 60 60 60
-19.1780 4.2091 0.4430 60 60 60
8.5041 5.7316 0.3112 60 60 60
-2.9265 5.4612 0.2252 60 60 60
-4.1616 16.4984 0.8535 60 60 60
9.9369 12.6212 3.1468 60 60 60
-11.7774 4.5439 -0.0283 60 60 60
-14.6405 4.1199 1.4923 60 60 60
0.4275 -4.5099 0.0505 60 60 60
0.3632 -3.0142 0.0225 60 60 60
0.8294 -0.0004 1.8390 60 60 60
4.3579 8.6608 0.4724 60 60 60
0.6828 0.4572 1.5644 60 60 60
-0.3591 5.5901 0.2636 60 60 60
6.8487 7.0095 1.7275 60 60 60
2.8857 -2.6915 0.0254 60 60 60
8.9030 -6.8930 0.0894 60 60 60
-8.9198 -31.2653 1.8888 60 60 60
4.9920 -21.8298 1.0884 60 60 60
2.5981 10.7400 0.8352 60 60 60
-12.5336 13.0899 3.9974 60 60 60
0.4076 -0.4176 1.5005 60 60 60
-6.1108 -0.9534 -0.0011 60 60 60
-5.0878 -22.6555 3.4840 60 60 60
-9.6065 12.2301 1.0401 60 60 60
0.8812 -0.0002 1.8395 60 60 60
2.8674 11.2904 1.5836 60 60 60
-2.4496 -5.6422 0.0194 60 60 60
4.1316 4.6383 0.2571 60 60 60
2.2442 -2.9100 0.0308 60 60 60
13.6575 -11.0357 0.2650 60 60 60
6.0519 6.1594 2.1237 60 60 60
1.1851 -0.5278 1.4758 60 60 60
-58.3587 -30.9373 4.6461 60 60 60
0.6827 -0.0010 1.8372 60 60 60
0.6795 3.5325 -0.0094 60 60 60
8.1694 16.3023 3.8510 60 60 60
-15.2963 3.6866 0.7092 60 60 60
-5.0753 16.7199 1.2554 60 60 60
-3.0831 16.3561 1.2480 60 60 60
1.2249 -0.2766 1.4810 60 60 60
3.0427 3.5151 0.0160 60 60 60
11.2566 -10.5765 0.1225 60 60 60
-1.2407 -3.0654 0.0257 60 60 60
1.8272 -5.8735 0.0608 60 60 60
-80.8282 1.8762 7.6517 60 60 60
0.3897 -0.0615 1.6168 60 60 60
2.4612 11.3957 2.9391 60 60 60
0.8704 -0.0003 1.8394 60 60 60
-1.6504 6.5146 2.2677 60 60 60
4.6335 3.8164 0.1761 60 60 60
-2.9789 5.7631 2.9485 60 60 60
-3.2727 16.3077 4.0105 60 60 60
8.2751 -5.5803 0.0718 60 60 60
1.3174 -0.2136 1.4789 60 60 60
1.4702 11.4950 3.2357 60 60 60
-36.1789 14.7638 10.3826 60 60 60
0.7108 -0.0009 1.8376 60 60 60
0.3514 -0.3606 1.5152 60 60 60
-5.0043 0.9293 -0.0067 60 60 60
6.2218 -5.1880 0.0601 60 60 60
-88.7918 11.9647 4.0874 60 60 60
3.1784 -2.6867 0.0282 60 60 60
1.2175 -6.0037 0.0613 60 60 60
1.2720 0.1063 1.4876 60 60 60
0.8252 -0.0005 1.8389 60 60 60
0.8315 -0.0004 1.8390 60 60 60
-9.2895 -7.2165 0.0046 60 60 60
-15.4669 6.9724 0.2068 60 60 60
-3.9872 -3.8718 0.0135 60 60 60
1.2562 0.1718 1.4852 60 60 60
5.8014 -1.7495 0.0108 60 60 60
1.2243 -0.5314 1.4595 60 60 60
0.1613 0.0085 1.5278 60 60 60
-8.7007 2.5667 -0.0105 60 60 60
-13.2815 17.5762 2.2875 60 60 60
0.6511 -0.0011 1.8368 60 60 60
9.5899 13.2684 2.8167 60 60 60
-12.0112 13.5443 5.3200 60 60 60
0.9679 -34.0115 0.8408 60 60 60
0.8657 3.7428 -0.0103 60 60 60
0.8593 -0.0003 1.8393 60 60 60
-0.0254 5.6151 0.2668 60 60 60
0.2058 3.7126 -0.0109 60 60 60
0.7846 -3.7280 0.0460 60 60 60
0.4162 0.3619 1.5014 60 60 60
7.9571 9.1439 0.6199 60 60 60
-0.5860 4.5390 0.1695 60 60 60
1.0476 0.4275 1.4840 60 60 60
0.2585 4.2913 0.0735 60 60 60
1.3388 0.0170 1.5338 60 60 60
0.8599 -0.0003 1.8393 60 60 60
5.8364 8.4621 3.3905 60 60 60
1.1863 -0.3119 1.4931 60 60 60
5.0236 0.7653 -0.3707 60 60 60
-3.1573 -5.2800 0.0142 60 60 60
2.7250 -4.2521 0.0493 60 60 60
0.7645 4.2257 -0.0088 60 60 60
5.4184 1.6827 0.0200 60 60 60
3.5808 9.1019 0.4747 60 60 60
-5.3589 -5.4692 0.0066 60 60 60
5.9265 -2.6165 0.0122 60 60 60
0.7096 -0.0009 1.8375 60 60 60
7.2698 -8.9180 0.0678 60 60 60
2.1533 -34.1494 0.8071 60 60 60
-4.0424 -3.8270 0.0104 60 60 60
1.5545 -5.0392 0.0600 60 60 60
-14.8916 7.3053 1.8620 60 60 60
-12.1839 -1.8407 -0.0115 60 60 60
0.8695 5.9739 0.3149 60 60 60
-16.2639 11.8975 0.8677 60 60 60
4.5789 2.7355 0.0094 60 60 60
0.8163 -0.0005 1.8388 60 60 60
2.2412 3.0015 0.0013 60 60 60
-0.6066 -3.1318 0.0322 60 60 60
6.6589 -4.6426 0.0566 60 60 60
-1.6406 16.1693 1.9973 60 60 60
-1.6514 5.3771 0.2316 60 60 60
2.2897 11.3947 3.7593 60 60 60
0.6937 -0.0010 1.8373 60 60 60
0.8859 -0.0002 1.8396 60 60 60
-0.2731 -3.0604 0.0266 60 60 60
0.1274 -10.0673 0.6155 60 60 60
0.7362 -0.0008 1.8379 60 60 60
0.0476 15.9364 3.4458 60 60 60
0.6594 -0.0011 1.8369 60 60 60
-4.8605 -1.3265 0.0027 60 60 60
1.1778 -21.2854 4.1901 60 60 60
1.8348 -16.9588 -0.2751 60 60 60
0.8384 -0.0004 1.8391 60 60 60
0.9039 -0.4285 1.5775 60 60 60
-11.8433 -21.2270 4.9136 60 60 60
5.0116 3.9346 0.2123 60 60 60
-2.5634 6.4352 2.8199 60 60 60
0.3423 0.0063 1.5935 60 60 60
1.0859 4.7953 0.2280 60 60 60
3.0861 4.7580 0.2689 60 60 60
5.6173 0.7669 0.0228 60 60 60
-24.2806 18.8442 2.5617 60 60 60
-24.3094 14.6682 3.2155 60 60 60
0.7135 -0.0009 1.8376 60 60 60
3.2474 4.6603 0.2672 60 60 60
5.1226 1.4934 0.0185 60 60 60
0.7171 -0.0009 1.8376 60 60 60
2.2903 2.9644 0.0045 60 60 60
0.6948 0.4573 1.5632 60 60 60
6.2519 -5.1584 0.0591 60 60 60
3.0329 -4.9138 0.0548 60 60 60
-4.7586 -5.9391 0.0135 60 60 60
-2.2156 4.0100 -0.0321 60 60 60
-1.1687 -3.9107 0.0375 60 60 60
5.9540 -2.5551 0.0124 60 60 60
-9.6823 -34.3363 0.2145 60 60 60
3.0823 -2.7688 0.0319 60 60 60
4.9695 -0.7676 0.0207 60 60 60
0.0244 -0.3463 1.4891 60 60 60
1.3900 3.8439 -0.0133 60 60 60
-0.2280 4.5984 0.1756 60 60 60
-9.4668 12.3747 1.4116 60 60 60
0.8190 4.3405 0.1767 60 60 60
0.6469 -0.0012 1.8367 60 60 60
-36.4475 -5.0334 0.0862 60 60 60
-1.7477 3.5240 -0.0246 60 60 60
-24.6710 14.5150 4.6057 60 60 60
-4.2323 12.5015 1.4079 60 60 60
0.5883 0.5309 1.4846 60 60 60
0.7227 -0.0009 1.8377 60 60 60
-2.7291 3.0635 -0.0204 60 60 60
-8.9156 -0.9380 -0.0066 60 60 60
0.8142 -0.0005 1.8388 60 60 60
7.0515 -22.0716 -0.0537 60 60 60
2.1658 -3.1479 0.0399 60 60 60
9.4287 -11.0393 0.5759 60 60 60
-1.9929 -5.8143 0.0242 60 60 60
-1.6192 -3.1071 0.0196 60 60 60
3.6209 6.1995 1.1592 60 60 60
-2.9560 -4.1523 0.0167 60 60 60
0.7184 3.1815 -0.0196 60 60 60
-11.0918 -21.6386 4.8904 60 60 60
4.9946 0.5714 0.0245 60 60 60
5.6190 6.1742 0.4480 60 60 60
14.5632 -23.6577 5.2014 60 60 60
0.8473 -0.0004 1.8392 60 60 60
3.6236 -19.3696 3.9409 60 60 60
0.2257 -3.7249 0.0445 60 60 60
1.3008 -9.2121 0.0293 60 60 60
0.8343 -0.4669 1.5685 60 60 60
-11.4106 -4.1287 -0.0062 60 60 60
-4.5880 12.1461 1.4231 60 60 60
0.7481 -0.0008 1.8380 60 60 60
0.4101 0.3574 1.5005 60 60 60
-0.7417 10.2464 0.7294 60 60 60
0.6594 -0.0011 1.8369 60 60 60
-14.0696 17.6758 1.7693 60 60 60
11.1210 -11.1927 0.8044 60 60 60
0.7263 -0.0008 1.8377 60 60 60
0.5318 -10.0567 0.3692 60 60 60
-0.7763 -18.2073 3.9046 60 60 60
1.2760 -0.1738 1.4887 60 60 60
1.0496 10.2442 0.6921 60 60 60
1.3670 0.2360 1.4547 60 60 60
-2.4193 -4.5046 0.0225 60 60 60
-0.0853 -0.1239 1.4939 60 60 60
-37.6228 12.4800 5.6848 60 60 60
-6.7629 -21.2602 2.4201 60 60 60
-0.8648 -4.0258 0.0378 60 60 60
4.2781 3.1410 0.0143 60 60 60
-2.9480 -17.1027 0.6030 60 60 60
0.8881 -0.0002 1.8396 60 60 60
3.2895 -8.4771 0.0550 60 60 60
0.7290 -0.0008 1.8378 60 60 60
-1.8231 7.5501 3.2746 60 60 60
0.6723 -0.0011 1.8371 60 60 60
4.3214 1.9704 0.0138 60 60 60
0.9269 -0.0001 1.8400 60 60 60
-7.4396 10.7756 0.5169 60 60 60
0.9220 0.5292 1.4770 60 60 60
-3.6143 10.2342 0.4395 60 60 60
8.2891 -53.5749 2.5912 60 60 60
0.7681 -0.0007 1.8383 60 60 60
6.0127 -2.4328 0.0111 60 60 60
-26.3629 0.2850 -0.0337 60 60 60
5.8884 7.7084 0.4432 60 60 60
0.8342 -0.0004 1.8390 60 60 60
-2.0804 -4.2302 0.0242 60 60 60
1.2888 -0.1006 1.4876 60 60 60
0.8533 -0.0004 1.8392 60 60 60
0.0532 0.0291 1.5871 60 60 60
1.4202 4.1878 0.1786 60 60 60
9.9955 12.5485 3.1427 60 60 60
4.4702 -1.5889 0.0168 60 60 60
0.1406 -0.2339 1.5065 60 60 60
1.0938 -0.4528 1.4850 60 60 60
-0.7978 4.0141 -0.0273 60 60 60
0.0056 0.1775 1.4953 60 60 60
0.1392 0.0255 1.5373 60 60 60
-52.3015 -11.6092 5.6029 60 60 60
3.2584 10.6447 1.5828 60 60 60
0.8674 -0.0003 1.8394 60 60 60
-7.9888 4.5677 -0.0302 60 60 60
-5.5153 -4.0538 0.0054 60 60 60
2.5879 6.2370 2.2841 60 60 60
1.4555 7.0208 0.3569 60 60 60
0.6755 -0.0010 1.8371 60 60 60
1.1184 0.4396 1.4884 60 60 60
-51.6291 -12.7510 4.2937 60 60 60
0.9287 -0.0001 1.8401 60 60 60
-6.0467 9.5223 0.4108 60 60 60
-5.0479 -3.4743 0.0115 60 60 60
5.4977 7.8371 2.8428 60 60 60
-4.6918 -2.9712 0.0077 60 60 60
0.3235 -0.3280 1.5123 60 60 60
1.3245 -4.4087 0.0572 60 60 60
-21.9434 12.7119 0.6434 60 60 60
1.1075 -0.5275 1.4843 60 60 60
4.1916 6.4810 0.3949 60 60 60
-0.4368 -6.6791 0.0497 60 60 60
-12.2365 13.7436 4.4698 60 60 60
0.1520 -0.2608 1.5077 60 60 60
1.1708 0.2857 1.4827 60 60 60
0.7786 -0.0006 1.8384 60 60 60
3.0799 -28.6212 -0.3983 60 60 60
0.0128 -0.2507 1.4971 60 60 60
0.2759 0.2204 1.5174 60 60 60
0.7783 -3.0206 0.0223 60 60 60
-3.1867 16.3696 1.2489 60 60 60
-3.1513 16.2720 4.3970 60 60 60
-1.5934 16.2160 0.8492 60 60 60
0.9773 0.4847 1.4827 60 60 60
1.4431 -16.9322 -0.2597 60 60 60
6.0509 -8.1094 0.0630 60 60 60
-2.2944 3.4815 -0.0214 60 60 60
7.3874 -3.6509 0.0289 60 60 60
0.2113 -0.4890 1.4813 60 60 60
-0.0031 -0.4694 1.4580 60 60 60
0.7141 -0.0009 1.8376 60 60 60
-0.4604 -2.8438 0.0115 60 60 60
4.0671 8.8208 0.4752 60 60 60
5.0862 -1.5869 0.0133 60 60 60
-31.6746 -19.4487 -0.1333 60 60 60
-20.6347 13.9969 6.6822 60 60 60
0.2584 0.3196 1.5067 60 60 60
-10.5844 -20.3869 2.5371 60 60 60
9.2236 6.7197 0.3944 60 60 60
0.3264 -4.2270 0.0456 60 60 60
1.4344 4.1537 0.0750 60 60 60
3.8141 -18.3886 4.7125 60 60 60
9.7482 -5.7435 0.0741 60 60 60
-5.3418 5.8372 0.2162 60 60 60
-4.7183 -22.2427 2.9091 60 60 60
-6.8560 -0.9199 -0.0009 60 60 60
4.0472 2.0084 0.0031 60 60 60
0.8596 -0.0003 1.8393 60 60 60
0.4984 0.4501 1.4962 60 60 60
0.7654 -0.0007 1.8382 60 60 60
-1.6763 16.1253 3.5239 60 60 60
-6.7066 11.8442 0.7820 60 60 60
0.8659 -0.0003 1.8394 60 60 60
25.2061 18.1090 4.1868 60 60 60
1.1363 -0.4207 1.4798 60 60 60
16.9834 -10.9034 0.9199 60 60 60
-11.6815 -29.5173 1.2225 60 60 60
0.8818 -0.0002 1.8396 60 60 60
1.9903 -3.0353 0.0346 60 60 60
3.0934 -5.3618 0.0645 60 60 60
0.7150 -0.0009 1.8376 60 60 60
-7.9674 10.4191 0.5213 60 60 60
5.1731 -2.2687 0.0130 60 60 60
-6.7236 12.4511 2.7805 60 60 60
0.0031 0.1676 1.4953 60 60 60
5.3810 -6.0251 0.0657 60 60 60
7.5002 8.1882 0.4703 60 60 60
15.9833 -9.4751 0.1492 60 60 60
0.0289 0.2354 1.4975 60 60 60
-0.9570 -5.0675 0.0400 60 60 60
1.2769 -0.0779 1.4772 60 60 60
-1.5039 -5.4157 0.0276 60 60 60
3.7252 3.7463 0.0134 60 60 60
3.9249 6.2311 2.6175 60 60 60
-4.6214 -4.0357 0.0108 60 60 60
3.1055 3.4736 0.0134 60 60 60
-40.6141 -12.9218 6.8318 60 60 60
6.7302 4.9118 0.2425 60 60 60
5.4766 -1.4516 0.0152 60 60 60
2.8213 0.3088 0.8795 60 60 60
0.8569 -0.0003 1.8393 60 60 60
0.7310 0.4680 1.5675 60 60 60
4.1683 -6.9278 0.0658 60 60 60
1.2957 -0.0703 1.4846 60 60 60
2.6684 4.2654 0.2138 60 60 60
-1.8800 -17.8023 4.3272 60 60 60
0.1385 -0.0159 1.5576 60 60 60
0.9776 -0.5122 1.4971 60 60 60
0.7329 -0.0008 1.8378 60 60 60
-0.6700 3.7685 -0.0234 60 60 60
1.9875 -5.3482 0.0585 60 60 60
-1.3390 4.1130 -0.0281 60 60 60
0.0632 0.1030 1.5016 60 60 60
-1.5049 -6.5497 0.0388 60 60 60
0.0028 4.8874 0.2153 60 60 60
-6.6480 10.8794 0.5429 60 60 60
-7.7967 -0.4800 0.0029 60 60 60
-3.9162 -4.7556 0.0074 60 60 60
-20.8146 -20.7664 0.1456 60 60 60
7.0089 6.8648 3.2568 60 60 60
4.4835 3.8487 0.2042 60 60 60
0.8686 -0.0003 1.8394 60 60 60
-0.1922 -42.7312 3.6005 60 60 60
-15.4152 3.7079 0.3106 60 60 60
-1.6375 2.9209 -0.0076 60 60 60
-12.5495 -7.5906 0.3255 60 60 60
0.7526 -0.0007 1.8381 60 60 60
-1.9154 -7.1896 0.0417 60 60 60
0.6430 -0.0012 1.8367 60 60 60
-1.6803 4.3187 -0.0271 60 60 60
-2.0608 -3.4275 0.0270 60 60 60
-3.3091 5.2585 0.2165 60 60 60
-5.1318 3.9252 -0.0402 60 60 60
2.9415 -3.7663 0.0491 60 60 60
2.9477 3.2979 0.0030 60 60 60
1.3543 -3.6483 0.0451 60 60 60
-37.5638 3.1583 10.0949 60 60 60
-1.5981 4.6105 0.1624 60 60 60
-4.8316 -8.4965 0.9744 60 60 60
-4.5480 10.6505 0.6392 60 60 60
-4.8236 1.6959 -0.0064 60 60 60
-0.8459 3.6962 -0.0213 60 60 60
-1.6234 3.6141 -0.0278 60 60 60
-7.5290 16.7875 4.7919 60 60 60
1.4944 4.0981 -0.0246 60 60 60
1.8236 4.3231 0.2006 60 60 60
4.9237 6.0967 0.3633 60 60 60
-4.3521 16.4185 3.6760 60 60 60
0.6076 3.9793 -0.0124 60 60 60
-19.2767 12.4964 1.2969 60 60 60
0.8366 -0.0004 1.8391 60 60 60
-5.1315 7.0446 0.2853 60 60 60
7.5757 -52.9785 2.5963 60 60 60
-11.9249 16.9448 3.7401 60 60 60
-1.0819 -4.2763 0.0369 60 60 60
1.2762 8.7371 0.4352 60 60 60
-25.1975 14.4639 6.7669 60 60 60
66.4958 -57.5118 8.0229 60 60 60
0.7616 -0.0007 1.8382 60 60 60
-3.8077 4.7590 0.0725 60 60 60
0.8345 -0.0004 1.8390 60 60 60
0.0500 6.0542 0.2986 60 60 60
19.8283 -49.7931 4.8015 60 60 60
-0.5862 -3.8352 0.0357 60 60 60
2.6546 6.6283 1.9886 60 60 60
0.7278 -0.0008 1.8378 60 60 60
0.6640 -9.2959 0.0319 60 60 60
-29.5183 -27.8059 0.4927 60 60 60
2.0129 10.5965 1.1202 60 60 60
-2.1105 4.5562 0.1026 60 60 60
5.1219 -7.3977 0.0625 60 60 60
-6.8800 -0.6530 0.0018 60 60 60
-1.4350 -2.7060 0.0159 60 60 60
6.5422 -13.9409 -0.1522 60 60 60
-3.1823 4.3631 -0.0425 60 60 60
-1.5337 -3.7384 0.0360 60 60 60
0.1395 0.0801 1.5143 60 60 60
3.1216 2.8229 0.0089 60 60 60
-6.8658 -3.5349 0.0049 60 60 60
5.8079 9.4539 0.7617 60 60 60
1.2421 -0.2528 1.4765 60 60 60
-6.1410 -22.4508 5.1779 60 60 60
9.0277 9.1970 0.8166 60 60 60
-48.3461 20.4346 3.1552 60 60 60
3.9479 -3.7894 0.0482 60 60 60
3.6997 -4.9955 0.0643 60 60 60
6.4066 3.5978 0.1065 60 60 60
8.3544 9.7068 1.4190 60 60 60
1.7737 11.4647 2.4165 60 60 60
2.7113 -3.3282 0.0371 60 60 60
-35.9671 10.3417 8.1956 60 60 60
-2.8789 -8.8076 0.5346 60 60 60
4.5481 5.3232 3.0149 60 60 60
2.4290 0.3904 0.9947 60 60 60
4.8061 -3.4660 0.0370 60 60 60
-4.6574 8.2981 0.3859 60 60 60
-2.1015 -17.7841 3.4840 60 60 60
-16.8003 5.1502 2.7271 60 60 60
0.8267 -0.0005 1.8389 60 60 60
5.3298 -0.3397 0.0176 60 60 60
-4.2898 12.1688 2.9649 60 60 60
-11.9966 3.7161 -0.0198 60 60 60
0.7198 -0.0009 1.8377 60 60 60
2.0378 6.7870 0.3699 60 60 60
5.2418 1.0148 0.0191 60 60 60
1.4801 -16.4023 4.8134 60 60 60
0.7702 -0.0007 1.8383 60 60 60
0.1167 -3.7225 0.0404 60 60 60
-0.7737 4.0220 -0.0270 60 60 60
1.8314 -3.0942 0.0401 60 60 60
3.5505 3.0757 0.0111 60 60 60
-3.8053 -8.4632 0.0863 60 60 60
44.1755 -29.1431 0.6001 60 60 60
5.2668 -18.6167 0.7234 60 60 60
3.4151 3.9390 0.1611 60 60 60
-4.4051 3.8542 -0.0405 60 60 60
-38.0490 -13.8683 0.7771 60 60 60
1.2193 -0.4813 1.4990 60 60 60
26.6994 16.3362 4.1610 60 60 60
1.8347 -7.9802 0.0498 60 60 60
-11.3615 12.1451 1.4043 60 60 60
1.0438 0.5441 1.4717 60 60 60
-14.9803 2.1854 -0.0050 60 60 60
6.8614 -4.4110 0.0475 60 60 60
0.8602 -0.0003 1.8393 60 60 60
1.1112 0.3467 1.4904 60 60 60
5.6487 6.8296 0.5643 60 60 60
6.3839 5.2120 0.2654 60 60 60
6.0819 -9.9427 0.0590 60 60 60
1.6005 0.2800 1.3586 60 60 60
-2.6472 -19.0616 3.6159 60 60 60
-4.4126 -23.9536 2.9659 60 60 60
-0.2050 3.0282 -0.0170 60 60 60
1.4459 -18.4511 3.8700 60 60 60
1.0790 0.4183 1.4751 60 60 60
-7.2492 -21.1096 3.4894 60 60 60
-9.4117 12.7508 1.4005 60 60 60
1.6496 -3.3579 0.0426 60 60 60
2.1821 11.4209 2.6751 60 60 60
4.3962 -6.7842 0.0656 60 60 60
-7.8609 -3.9917 -0.0005 60 60 60
-12.5284 12.2439 0.9682 60 60 60
1.1701 -3.9214 0.0436 60 60 60
-0.1042 -10.0148 0.3862 60 60 60
0.7582 0.4510 1.5727 60 60 60
18.9232 16.3896 1.4882 60 60 60
1.3524 -0.3202 1.4623 60 60 60
0.6848 -0.0010 1.8372 60 60 60
-0.9763 -9.9879 0.8753 60 60 60
5.9205 1.2884 0.0225 60 60 60
0.7741 -0.0006 1.8383 60 60 60
-14.9215 4.6948 1.8681 60 60 60
0.7212 -0.0009 1.8377 60 60 60
-4.9997 11.3855 0.8545 60 60 60
0.3008 -7.3877 0.0497 60 60 60
0.8530 -0.0003 1.8392 60 60 60
0.7628 -0.0007 1.8382 60 60 60
-0.7150 -5.1178 0.0420 60 60 60
0.6876 5.1884 0.2588 60 60 60
2.0205 3.8982 -0.0182 60 60 60
-3.8270 4.5051 -0.0445 60 60 60
0.6466 -0.0012 1.8367 60 60 60
-6.1738 0.9114 -0.0074 60 60 60
0.8433 4.5761 0.2067 60 60 60
0.1331 0.0638 1.5127 60 60 60
1.3962 -0.1817 1.4607 60 60 60
2.1608 -3.6265 0.0402 60 60 60
-1.6048 3.9733 -0.0272 60 60 60
0.8303 -0.0004 1.8390 60 60 60
0.8544 4.3170 0.1713 60 60 60
-10.4467 0.8157 -0.0095 60 60 60
0.1084 -0.3963 1.4882 60 60 60
-20.3789 14.7414 7.3435 60 60 60
1.3493 -0.3230 1.4632 60 60 60
-3.7175 -8.6333 0.5283 60 60 60
0.7048 -0.0009 1.8375 60 60 60
-6.3837 -2.5384 0.0040 60 60 60
0.1969 0.1055 1.5180 60 60 60
0.8258 -0.0004 1.8389 60 60 60
0.7293 -0.0008 1.8378 60 60 60
-8.6739 -18.5174 5.3813 60 60 60
9.7620 8.4119 0.5065 60 60 60
0.8827 -0.0002 1.8396 60 60 60
-2.6747 -3.8412 0.0186 60 60 60
2.1915 -3.3585 0.0422 60 60 60
0.8142 -0.0005 1.8388 60 60 60
5.4334 -1.5909 0.0154 60 60 60
6.0967 6.0758 0.5917 60 60 60
0.6743 -0.0011 1.8371 60 60 60
6.7747 -5.7800 0.0740 60 60 60
1.3534 -18.6203 4.7715 60 60 60
1.2047 0.3904 1.5284 60 60 60
12.6049 -23.6648 3.2566 60 60 60
3.6778 6.1987 1.4780 60 60 60
2.4575 -0.3251 0.9921 60 60 60
-5.9020 -1.7747 0.0025 60 60 60
-0.6869 4.3995 0.0842 60 60 60
-11.6382 -3.6523 -0.0101 60 60 60
5.3719 10.3861 1.5189 60 60 60
-6.3471 -4.4145 -0.0025 60 60 60
-18.0842 9.1562 0.3922 60 60 60
-6.1852 -2.9797 0.0035 60 60 60
0.9219 -0.0001 1.8400 60 60 60
-0.8557 -3.7547 0.0323 60 60 60
15.1366 -23.7072 4.5824 60 60 60
-1.0300 -9.9216 0.4054 60 60 60
2.7678 4.2164 0.2111 60 60 60
-6.6186 2.4278 -0.0151 60 60 60
1.0437 3.6864 -0.0120 60 60 60
-5.5252 1.0512 -0.0073 60 60 60
0.8249 -0.0004 1.8389 60 60 60
3.3509 3.9445 0.1736 60 60 60
1.2625 0.1330 1.4889 60 60 60
0.8082 -0.0005 1.8387 60 60 60
-11.8694 13.5704 5.7567 60 60 60
4.2433 10.4324 1.0396 60 60 60
-40.7250 -13.2200 6.8509 60 60 60
-52.3571 -15.8964 5.6311 60 60 60
9.4490 -11.0608 0.9019 60 60 60
-2.0467 -18.1516 3.9479 60 60 60
-29.7002 15.7839 5.8956 60 60 60
0.8204 8.8262 0.4362 60 60 60
-1.6764 6.4295 3.0835 60 60 60
0.8192 -0.0005 1.8389 60 60 60
1.4077 -6.5125 0.0670 60 60 60
0.7344 -0.0008 1.8378 60 60 60
0.8022 -0.0005 1.8387 60 60 60
-5.3602 6.9768 0.2719 60 60 60
4.9591 4.0285 0.2076 60 60 60
-2.3339 -3.6273 0.0252 60 60 60
0.3831 4.8746 0.2286 60 60 60
1.5437 0.3861 1.3655 60 60 60
-3.3191 -2.6795 0.0065 60 60 60
1.2970 -0.1053 1.4825 60 60 60
-0.4700 2.9270 -0.0144 60 60 60
-7.8593 11.9268 1.4326 60 60 60
6.3251 10.6032 1.7620 60 60 60
-2.9643 2.7598 -0.0143 60 60 60
0.8542 -0.0003 1.8393 60 60 60
1.8092 3.4510 -0.0041 60 60 60
12.2289 19.6653 1.6723 60 60 60
4.8538 1.2971 0.0225 60 60 60
3.1959 -3.2686 0.0383 60 60 60
-2.4306 7.8722 0.3592 60 60 60
0.7711 -0.0007 1.8383 60 60 60
-24.5414 -6.1690 0.5941 60 60 60
-8.0054 -7.9853 0.0540 60 60 60
-17.9604 -47.3963 0.8292 60 60 60
1.1228 -3.1408 0.0266 60 60 60
-1.0290 3.3430 -0.0196 60 60 60
0.0906 -0.4909 1.4611 60 60 60
0.3437 -0.3302 1.5029 60 60 60
-1.5434 9.0134 0.4197 60 60 60
0.8408 -0.0004 1.8391 60 60 60
1.2858 -0.0487 1.4908 60 60 60
1.2098 4.4704 0.2095 60 60 60
55.7649 -38.3617 11.2469 60 60 60
0.7117 -0.0009 1.8376 60 60 60
-2.5804 -4.4018 0.0226 60 60 60
1.1088 0.4148 1.5017 60 60 60
4.1627 1.7826 0.0031 60 60 60
4.0775 -6.1073 0.0659 60 60 60
2.7246 0.4302 0.9125 60 60 60
-14.5821 4.6847 1.4896 60 60 60
3.6281 3.3845 0.0169 60 60 60
6.0937 10.2122 1.2251 60 60 60
-1.2662 16.1367 1.6099 60 60 60
0.8391 -3.3242 0.0429 60 60 60
7.9123 7.7226 0.4663 60 60 60
4.3942 -5.1012 0.0682 60 60 60
0.2300 0.2375 1.5129 60 60 60
4.8591 -5.4780 0.0737 60 60 60
2.0372 -3.6815 0.0397 60 60 60
0.3050 0.3086 1.5090 60 60 60
-5.4684 3.3064 -0.0281 60 60 60
0.8473 -3.0154 0.0227 60 60 60
1.2434 0.0444 1.5116 60 60 60
5.3620 6.8587 0.3932 60 60 60
0.4078 0.4891 1.4884 60 60 60
4.2116 3.2326 0.0123 60 60 60
0.7816 -0.0006 1.8384 60 60 60
-13.0128 17.4067 5.9557 60 60 60
0.2789 3.9662 -0.0157 60 60 60
1.6984 -3.1761 0.0242 60 60 60
3.9223 11.1880 0.7360 60 60 60
-3.6946 16.3572 4.0396 60 60 60
68.2315 -61.1317 1.9353 60 60 60
-3.1506 -6.8667 0.0187 60 60 60
0.4033 0.4704 1.4940 60 60 60
-1.3568 2.8519 -0.0063 60 60 60
0.7965 -0.0006 1.8386 60 60 60
-10.3282 1.7881 -0.0061 60 60 60
-1.0383 -9.3874 0.0243 60 60 60
-16.2034 13.5783 1.8277 60 60 60
0.8713 -0.0003 1.8394 60 60 60
-2.2199 11.3296 0.8866 60 60 60
-1.4983 -9.8801 0.4096 60 60 60
2.3998 -0.5230 0.9991 60 60 60
0.0151 -2.9747 0.0162 60 60 60
6.9833 -18.5465 -0.2523 60 60 60
0.5740 0.5249 1.4839 60 60 60
-5.2640 12.3096 1.7424 60 60 60
0.8139 -0.0005 1.8388 60 60 60
-2.5801 -3.9125 0.0193 60 60 60
0.9267 -0.0001 1.8400 60 60 60
-2.6542 6.3457 2.9901 60 60 60
1.2205 -0.4772 1.4998 60 60 60
-0.8251 -3.2651 0.0313 60 60 60
1.0107 11.5179 3.5195 60 60 60
-7.3295 -8.2814 0.6326 60 60 60
-1.7187 6.5154 0.6207 60 60 60
1.7685 4.6345 0.2238 60 60 60
-2.9070 -8.7442 0.7680 60 60 60
-0.3247 16.0381 1.2145 60 60 60
7.1554 9.1892 0.6814 60 60 60
8.6956 -5.0091 0.0599 60 60 60
-10.4437 -0.0349 -0.0080 60 60 60
-43.1643 6.7386 10.3020 60 60 60
2.7917 8.2877 3.2421 60 60 60
0.2502 0.2867 1.5111 60 60 60
-2.2041 -2.6069 0.0175 60 60 60
7.5428 16.2039 3.4095 60 60 60
-4.3438 -1.5908 -0.0059 60 60 60
-4.3606 -2.5276 0.0086 60 60 60
4.1044 -3.1866 0.0355 60 60 60
4.8357 3.7822 0.1351 60 60 60
1.2788 0.0090 1.5289 60 60 60
-0.0150 -2.9528 0.0252 60 60 60
5.7379 6.3661 2.3203 60 60 60
0.2555 3.9644 -0.0160 60 60 60
-12.5239 13.3737 3.5722 60 60 60
-0.6131 -5.6001 0.0373 60 60 60
-8.5275 -2.4648 0.0001 60 60 60
-3.9363 -21.8997 4.9725 60 60 60
5.1440 3.2384 0.0132 60 60 60
5.1514 10.4555 0.7266 60 60 60
0.8842 -0.0002 1.8396 60 60 60
3.5695 4.9518 0.2864 60 60 60
3.4910 6.2033 1.1672 60 60 60
1.1864 0.4120 1.5289 60 60 60
-12.0707 -2.2830 -0.0097 60 60 60
-0.5669 -9.9721 0.3967 60 60 60
0.0782 -0.0394 1.5755 60 60 60
0.8955 -0.0002 1.8397 60 60 60
0.2847 0.1339 1.5371 60 60 60
7.0829 -5.4682 0.0641 60 60 60
-15.3313 4.2161 2.6472 60 60 60
2.7248 -12.9834 -0.1351 60 60 60
-35.5622 12.3042 7.3107 60 60 60
2.8264 7.5425 2.9333 60 60 60
1.6688 3.5062 -0.0048 60 60 60
-7.2197 7.1490 3.8637 60 60 60
-16.9590 13.5861 4.4520 60 60 60
-20.4635 3.7148 0.8668 60 60 60
-5.1601 -3.3121 0.0102 60 60 60
0.8025 -0.0005 1.8387 60 60 60
-4.8258 -2.7541 0.0057 60 60 60
-10.2220 2.5016 -0.0107 60 60 60
-2.6772 6.8334 0.3310 60 60 60
0.3703 -0.2306 1.5429 60 60 60
-3.9329 4.7742 0.0474 60 60 60
-10.2436 5.5156 0.1084 60 60 60
0.7159 -0.0009 1.8376 60 60 60
41.9594 -51.7198 9.7941 60 60 60
-8.4626 12.5952 4.7302 60 60 60
0.8875 3.9698 -0.0097 60 60 60
-37.1512 0.4541 8.1298 60 60 60
0.8915 15.8883 1.9278 60 60 60
-4.0567 3.3407 -0.0238 60 60 60
-1.5361 5.4591 0.2216 60 60 60
0.8716 -0.0003 1.8394 60 60 60
2.7200 -3.0551 0.0359 60 60 60
0.8644 -0.0003 1.8394 60 60 60
3.2296 11.2843 2.1110 60 60 60
-38.5608 -0.6744 9.3004 60 60 60
21.2898 -20.6594 6.6825 60 60 60
-69.6757 -48.5928 5.2540 60 60 60
1.4760 3.3700 -0.0119 60 60 60
-4.4853 -4.1762 0.0133 60 60 60
1.0697 5.5203 0.2724 60 60 60
0.8348 -0.0004 1.8390 60 60 60
0.7517 6.5734 0.3270 60 60 60
1.2520 0.0482 1.5235 60 60 60
-0.9503 16.0129 4.6335 60 60 60
-11.8375 -29.3952 0.4789 60 60 60
6.1390 -2.1176 0.0109 60 60 60
-9.9463 14.3922 4.7297 60 60 60
-2.5006 -8.0417 0.0243 60 60 60
5.9523 1.1022 0.0243 60 60 60
23.9830 21.1113 2.8593 60 60 60
6.6571 -3.4768 0.0329 60 60 60
5.4910 1.4280 0.0206 60 60 60
4.1098 3.8277 0.0257 60 60 60
-26.5344 -20.0223 0.0159 60 60 60
0.7738 -0.0006 1.8383 60 60 60
-1.4623 6.4522 3.2360 60 60 60
5.7139 -2.9615 0.0227 60 60 60
1.3443 -0.0056 1.5320 60 60 60
-6.6566 -7.3490 0.0057 60 60 60
0.8575 -0.0003 1.8393 60 60 60
-6.6654 6.0872 0.2366 60 60 60
-3.9074 -7.5681 0.0155 60 60 60
-4.6507 -8.5350 0.7384 60 60 60
5.4789 7.9988 3.0794 60 60 60
-10.9739 -20.7937 2.5568 60 60 60
-29.8308 -16.7124 1.6742 60 60 60
0.6486 5.5643 0.2763 60 60 60
4.1437 -3.1490 0.0333 60 60 60
3.0568 -8.5952 0.0508 60 60 60
1.3220 10.0278 0.4686 60 60 60
0.9057 -0.0002 1.8398 60 60 60
20.5860 16.4961 0.8471 60 60 60
0.8213 -0.0005 1.8389 60 60 60
-2.2265 2.7275 -0.0130 60 60 60
0.5861 3.1802 -0.0216 60 60 60
3.7490 6.1943 2.1215 60 60 60
0.2259 0.3979 1.4952 60 60 60
1.2775 -0.0577 1.4772 60 60 60
4.9624 10.4372 1.5319 60 60 60
1.1881 -0.3810 1.4884 60 60 60
-3.8161 10.5430 0.6690 60 60 60
-7.8197 -8.1980 0.8899 60 60 60
-37.6908 12.0044 5.6781 60 60 60
4.2738 1.4803 0.0109 60 60 60
-0.3459 6.0335 0.2958 60 60 60
0.3759 0.3328 1.5131 60 60 60
7.0391 10.3347 1.1758 60 60 60
-7.0028 -3.2738 0.0047 60 60 60
-15.4627 13.8409 3.8201 60 60 60
1.0094 -0.5303 1.4778 60 60 60
-2.2176 -6.3785 0.0285 60 60 60
3.2381 -3.5762 0.0414 60 60 60
1.9683 -3.2421 0.0398 60 60 60
0.6564 -0.0011 1.8369 60 60 60
-26.9119 -27.9070 1.4339 60 60 60
0.6331 -0.0012 1.8366 60 60 60
-6.3154 -5.9619 0.0051 60 60 60
9.1842 5.0862 0.2613 60 60 60
-41.3193 -11.5377 11.0708 60 60 60
1.3032 -0.2313 1.4839 60 60 60
-12.0759 12.1390 1.8135 60 60 60
-7.9717 12.5364 4.6625 60 60 60
12.3914 -23.5571 5.0989 60 60 60
0.7419 7.1414 0.3699 60 60 60
1.5747 -4.3540 0.0564 60 60 60
-7.8000 12.5457 3.5532 60 60 60
-2.7364 6.7777 3.2375 60 60 60
0.3818 0.3376 1.5140 60 60 60
-30.1980 15.1100 5.1057 60 60 60
0.7592 -0.0007 1.8382 60 60 60
-16.0574 12.5117 1.3427 60 60 60
0.7057 -0.0009 1.8375 60 60 60
0.0265 -0.0758 1.5136 60 60 60
2.3899 -2.8232 0.0296 60 60 60
-14.0390 12.2568 0.9246 60 60 60
0.7714 -0.0006 1.8383 60 60 60
13.1529 -7.7143 0.1193 60 60 60
-1.9439 4.1850 -0.0317 60 60 60
-14.2971 -8.6989 0.9356 60 60 60
-4.7987 12.2587 1.7366 60 60 60
0.7123 -0.0009 1.8376 60 60 60
-1.8933 -3.2264 0.0181 60 60 60
-6.1204 1.2336 -0.0062 60 60 60
0.8234 -0.0004 1.8389 60 60 60
0.6209 -0.0012 1.8364 60 60 60
2.1168 -3.3985 0.0404 60 60 60
0.7735 -0.0006 1.8383 60 60 60
-22.0211 -16.9524 3.6222 60 60 60
-41.8563 -13.5821 10.1882 60 60 60
66.6499 -56.9826 3.9456 60 60 60
0.8345 -0.0004 1.8390 60 60 60
0.5555 -9.3062 0.0322 60 60 60
1.2150 -0.3357 1.5251 60 60 60
-4.3817 -2.5011 0.0068 60 60 60
1.1417 0.3080 1.5079 60 60 60
-25.0369 14.7695 6.7662 60 60 60
1.1322 5.5087 0.2725 60 60 60
0.8342 -0.0004 1.8390 60 60 60
-0.0009 -0.0880 1.5026 60 60 60
0.6687 -0.0011 1.8370 60 60 60
3.8554 -3.4314 0.0416 60 60 60
6.1620 -10.6767 0.2418 60 60 60
-9.7475 -7.9289 0.8171 60 60 60
1.6419 -3.5752 0.0435 60 60 60
0.8512 -0.0004 1.8392 60 60 60
0.2063 -0.2323 1.5157 60 60 60
17.3614 -51.1561 6.1408 60 60 60
0.8148 -0.0005 1.8388 60 60 60
1.6894 11.5115 1.8812 60 60 60
6.9506 -10.6527 0.1805 60 60 60
4.6932 -9.8027 0.1957 60 60 60
-4.5141 -3.2412 0.0082 60 60 60
0.2033 15.9380 2.6959 60 60 60
0.9093 -0.0001 1.8399 60 60 60
-3.3617 -3.2505 0.0015 60 60 60
2.1558 4.8238 0.2490 60 60 60
-1.8050 16.1632 2.7664 60 60 60
0.7550 -0.0007 1.8381 60 60 60
32.6896 27.1281 8.0974 60 60 60
0.3636 4.2775 0.0825 60 60 60
16.2063 -8.8803 0.1550 60 60 60
3.9156 -9.9802 0.2277 60 60 60
9.6309 -5.8898 0.0789 60 60 60
-20.9470 -16.5572 4.1858 60 60 60
51.3793 -42.2624 6.4903 60 60 60
-16.2206 13.5041 4.3743 60 60 60
0.2864 0.3662 1.5055 60 60 60
-5.3677 -8.2359 0.0029 60 60 60
1.6889 3.1176 -0.0223 60 60 60
0.7610 -0.0007 1.8382 60 60 60
-9.6565 -21.9719 5.9652 60 60 60
4.4317 2.9402 0.0128 60 60 60
3.3578 -3.1296 0.0374 60 60 60
1.8628 -3.5027 0.0419 60 60 60
1.5685 5.3840 0.2793 60 60 60
2.9034 -2.9151 0.0355 60 60 60
-20.4605 -21.1568 0.8315 60 60 60
1.4830 4.1454 0.0730 60 60 60
0.8438 -0.0004 1.8391 60 60 60
0.4632 0.4177 1.4978 60 60 60
8.9612 5.3541 0.2750 60 60 60
-13.6568 17.6211 2.2968 60 60 60
-0.8009 3.1948 -0.0128 60 60 60
11.1630 6.5412 3.9421 60 60 60
3.3413 -19.9027 3.0597 60 60 60
1.5928 -4.0665 0.0528 60 60 60
0.8883 -3.1596 0.0333 60 60 60
2.0744 10.6509 0.8635 60 60 60
1.1129 0.4083 1.5025 60 60 60
0.1484 -3.3146 0.0376 60 60 60
2.9817 -4.1025 0.0493 60 60 60
0.9353 -0.0000 1.8401 60 60 60
-36.3389 5.6714 7.1937 60 60 60
0.9248 -0.0001 1.8400 60 60 60
1.5202 3.7960 -0.0082 60 60 60
4.5065 5.3962 3.0230 60 60 60
3.8424 5.3316 0.3148 60 60 60
2.8928 -6.7277 0.0685 60 60 60
3.3555 3.2676 0.0108 60 60 60
0.3021 6.0393 0.3041 60 60 60
-9.6356 9.5855 0.4919 60 60 60
-2.9553 -2.6001 0.0095 60 60 60
-8.4460 5.2965 0.0831 60 60 60
1.3392 -0.0093 1.5345 60 60 60
-40.5500 12.3636 5.9486 60 60 60
0.8443 -0.0004 1.8391 60 60 60
2.3318 -4.4359 0.0518 60 60 60
0.8815 -0.0002 1.8395 60 60 60
0.3140 0.2994 1.5153 60 60 60
2.0879 11.4659 1.8712 60 60 60
-8.6545 -18.1746 3.8740 60 60 60
-3.4648 4.0585 -0.0311 60 60 60
1.3423 -0.0019 1.5328 60 60 60
-7.6967 16.8179 3.9141 60 60 60
0.8838 -0.0002 1.8396 60 60 60
0.1884 0.2905 1.5055 60 60 60
1.1064 0.4396 1.4739 60 60 60
-36.7705 2.1964 7.1905 60 60 60
-2.9665 -32.3127 2.4926 60 60 60
8.9251 5.3987 0.2770 60 60 60
-5.2355 5.9418 0.2151 60 60 60
4.9498 -0.8669 0.0213 60 60 60
2.6972 4.0276 0.1612 60 60 60
-5.2953 3.6368 -0.0335 60 60 60
4.9189 1.0498 0.0218 60 60 60
0.8919 -0.0002 1.8397 60 60 60
-3.6616 16.3377 4.8420 60 60 60
-0.1300 15.9625 3.8327 60 60 60
-0.7858 -3.2802 0.0320 60 60 60
0.3409 -0.2763 1.5168 60 60 60
-0.6680 4.5218 0.1679 60 60 60
-6.8868 1.1872 -0.0075 60 60 60
-0.9008 2.9135 -0.0099 60 60 60
6.1716 6.0882 0.5816 60 60 60
0.8641 -0.0003 1.8394 60 60 60
-1.8166 -2.6661 0.0155 60 60 60
0.6657 0.4660 1.5608 60 60 60
6.3892 3.0988 0.0047 60 60 60
0.8184 -0.0005 1.8388 60 60 60
-0.5905 -4.4046 0.0436 60 60 60
3.7535 -8.2590 0.0560 60 60 60
0.2534 -4.2191 0.0474 60 60 60
6.2889 4.1936 0.2279 60 60 60
-3.0934 -5.3202 0.0140 60 60 60
1.0762 -0.4655 1.4864 60 60 60
1.5583 -5.9390 0.0610 60 60 60
-6.4268 9.2328 0.4185 60 60 60
-5.7376 -19.1905 5.2163 60 60 60
4.9945 -21.8642 0.5653 60 60 60
-36.4720 5.4756 8.1047 60 60 60
-12.3581 17.4708 2.7743 60 60 60
0.3837 -0.4234 1.5070 60 60 60
0.8073 -0.0005 1.8387 60 60 60
1.1989 -0.4218 1.5072 60 60 60
0.7057 -0.0009 1.8375 60 60 60
1.1292 0.5144 1.4757 60 60 60
2.5151 11.3795 2.6672 60 60 60
2.0302 11.3935 4.0372 60 60 60
2.6609 -5.0778 0.0619 60 60 60
19.0146 -32.6610 -0.5503 60 60 60
-3.2289 -5.2475 0.0112 60 60 60
0.6275 -0.0012 1.8365 60 60 60
0.3464 0.1597 1.5456 60 60 60
4.7703 -1.5519 0.0176 60 60 60
-9.7774 -3.1226 -0.0004 60 60 60
-11.4106 -53.0427 1.8195 60 60 60
-3.2517 5.3131 0.2134 60 60 60
4.2894 2.6010 0.0109 60 60 60
-24.8341 13.7392 0.5080 60 60 60
2.1957 -5.2726 0.0604 60 60 60
0.7687 -0.0007 1.8383 60 60 60
-0.5351 -5.1546 0.0412 60 60 60
-1.5662 -8.2206 0.0290 60 60 60
1.5887 -3.8264 0.0443 60 60 60
-1.8981 2.7056 -0.0117 60 60 60
-2.0001 -17.9099 4.7774 60 60 60
3.7445 3.2759 0.0142 60 60 60
1.1377 0.3228 1.4867 60 60 60
0.0674 0.0604 1.5060 60 60 60
0.7672 -0.0007 1.8382 60 60 60
-22.3450 14.2581 3.1213 60 60 60
0.7287 -0.0008 1.8378 60 60 60
-3.7538 12.7274 2.9777 60 60 60
10.2936 -7.8784 0.1060 60 60 60
1.1434 0.3098 1.4885 60 60 60
0.9175 15.8504 2.6667 60 60 60
-6.9205 12.4628 3.1344 60 60 60
7.1695 -6.9345 0.0799 60 60 60
5.6664 -0.3957 0.0164 60 60 60
0.7559 -0.0007 1.8381 60 60 60
0.9168 -0.0001 1.8399 60 60 60
21.7698 20.6601 4.1977 60 60 60
-0.2024 -6.6932 0.0499 60 60 60
1.2278 -0.3125 1.5248 60 60 60
-0.1056 -0.4015 1.4610 60 60 60
0.7838 7.9850 0.3778 60 60 60
1.2524 0.0350 1.5244 60 60 60
-16.8571 4.8424 3.1574 60 60 60
0.9225 -0.0001 1.8400 60 60 60
-7.3080 -4.8766 -0.0027 60 60 60
-0.4350 2.9407 -0.0141 60 60 60
-5.8760 -1.8503 0.0031 60 60 60
0.8186 -0.0005 1.8388 60 60 60
-38.4734 0.0247 10.2447 60 60 60
0.4601 8.9137 0.4387 60 60 60
18.1108 -51.3893 7.4430 60 60 60
-7.2260 -2.7822 0.0049 60 60 60
8.1230 9.1165 0.8839 60 60 60
2.9001 6.2197 2.1279 60 60 60
10.2148 -7.9987 0.1054 60 60 60
-11.1800 -21.5052 4.8848 60 60 60
2.3730 -2.8313 0.0309 60 60 60
0.9395 -0.0000 1.8402 60 60 60
-2.1836 6.3224 0.2891 60 60 60
-38.0606 -13.1129 0.7929 60 60 60
-2.6150 6.7519 3.4062 60 60 60
1.6908 11.4494 3.7720 60 60 60
0.1076 -0.4072 1.4857 60 60 60
-2.7698 -50.9503 1.6210 60 60 60
-8.9002 -1.1627 -0.0100 60 60 60
0.0754 -3.7097 0.0441 60 60 60
5.9215 -3.5540 0.0317 60 60 60
0.1363 4.5971 0.1936 60 60 60
0.8351 -0.0004 1.8390 60 60 60
1.8462 10.6832 1.3707 60 60 60
5.8428 -8.3060 0.0582 60 60 60
3.9048 -6.2108 0.0673 60 60 60
2.1847 6.6980 0.3775 60 60 60
11.5641 -20.3663 5.2317 60 60 60
0.7200 -0.0009 1.8377 60 60 60
-3.0595 -5.3376 0.0148 60 60 60
0.8076 3.7226 -0.0132 60 60 60
-1.2022 10.3554 0.4683 60 60 60
-3.7341 16.4513 0.8545 60 60 60
1.1236 0.3214 1.4941 60 60 60
1.2525 0.1414 1.4931 60 60 60
45.2471 -60.7452 9.1774 60 60 60
0.7454 -0.0008 1.8380 60 60 60
1.8428 -3.5092 0.0423 60 60 60
5.1512 -8.8098 0.0558 60 60 60
-1.0287 -4.2870 0.0399 60 60 60
-7.2345 -18.8038 4.7988 60 60 60
-3.1871 3.0682 -0.0210 60 60 60
0.0119 -0.2767 1.4938 60 60 60
-3.5745 16.3973 2.0454 60 60 60
-4.1117 -4.5697 0.0100 60 60 60
-6.7744 -18.8805 3.3339 60 60 60
1.4216 -4.7230 0.0529 60 60 60
-1.0704 6.4527 0.3299 60 60 60
-3.7012 4.5936 -0.0387 60 60 60
2.7719 -8.7364 0.0444 60 60 60
6.2279 6.1400 2.1240 60 60 60
-4.2606 -2.7005 0.0090 60 60 60
3.4965 -4.1459 0.0548 60 60 60
-8.4260 -18.7939 3.9065 60 60 60
1.7463 11.4960 1.6115 60 60 60
5.7908 6.2173 2.1246 60 60 60
-2.9426 -7.9228 0.0213 60 60 60
0.3308 -0.4209 1.5056 60 60 60
-7.1915 -2.8752 0.0039 60 60 60
0.7198 -0.0009 1.8377 60 60 60
4.9755 -0.7431 0.0199 60 60 60
-41.7643 -42.3469 1.2283 60 60 60
0.7257 -0.0009 1.8377 60 60 60
-2.6726 -2.9102 0.0168 60 60 60
0.7180 -0.0009 1.8376 60 60 60
-1.6003 3.6253 -0.0267 60 60 60
0.8240 -0.0005 1.8389 60 60 60
-16.6170 3.4529 0.2077 60 60 60
-3.5624 -2.3287 0.0016 60 60 60
-1.6118 -8.2076 0.0302 60 60 60
1.1917 -0.3007 1.5111 60 60 60
10.1819 17.9402 3.1327 60 60 60
-1.7257 6.4165 2.7555 60 60 60
0.8318 -0.0004 1.8390 60 60 60
0.7663 -0.0007 1.8382 60 60 60
0.8438 -0.0004 1.8391 60 60 60
32.5970 28.4324 6.2196 60 60 60
1.3395 0.0094 1.5338 60 60 60
3.8282 10.3918 1.0613 60 60 60
0.2449 -3.3253 0.0380 60 60 60
-2.5354 -17.9027 4.3721 60 60 60
-3.5605 -6.6612 0.0208 60 60 60
0.7245 -0.0009 1.8377 60 60 60
-1.4964 16.1202 3.1347 60 60 60
-2.3847 -8.7553 0.9948 60 60 60
4.8251 1.3957 0.0223 60 60 60
-4.0118 -8.5967 0.9857 60 60 60
-0.7450 -5.1150 0.0409 60 60 60
-5.0388 0.6926 -0.0074 60 60 60
1.3140 -0.2317 1.4780 60 60 60
23.8786 22.0188 2.8926 60 60 60
11.3377 -22.3718 6.0968 60 60 60
4.5720 -9.2014 0.0493 60 60 60
-6.9763 -3.3169 0.0057 60 60 60
7.8139 -6.1137 0.0853 60 60 60
9.7076 13.1140 2.8085 60 60 60
-4.5034 11.5772 1.1461 60 60 60
-4.3624 16.6842 2.8832 60 60 60
5.9736 10.4465 0.9489 60 60 60
0.7478 3.9760 -0.0106 60 60 60
43.2231 -39.3862 11.4390 60 60 60
0.5133 3.7397 -0.0100 60 60 60
1.3447 0.2929 1.4537 60 60 60
1.5444 4.3981 0.2057 60 60 60
6.4703 5.9734 0.7556 60 60 60
5.6150 -0.8282 0.0159 60 60 60
-5.0766 12.2883 1.7401 60 60 60
-1.2974 5.9267 0.2770 60 60 60
2.3876 -19.5265 3.9723 60 60 60
1.7306 -4.0286 0.0519 60 60 60
-45.1575 -55.0734 0.9638 60 60 60
4.9862 -2.5966 0.0183 60 60 60
1.6609 4.1397 0.0540 60 60 60
-11.5548 17.2779 3.7364 60 60 60
-4.8859 1.4637 -0.0050 60 60 60
1.6724 6.3406 0.3272 60 60 60
6.8931 5.6519 0.3324 60 60 60
-43.5385 0.0187 10.2463 60 60 60
0.7389 -0.0008 1.8379 60 60 60
0.8527 -0.0003 1.8392 60 60 60
3.4486 4.5709 0.2546 60 60 60
-6.0633 -1.3148 -0.0073 60 60 60
-1.7037 -17.3639 5.1002 60 60 60
1.2744 -0.5187 1.5079 60 60 60
-29.6970 -27.9872 1.4532 60 60 60
5.5758 7.8615 2.8482 60 60 60
-4.1936 -8.5603 0.5171 60 60 60
4.2414 1.5910 0.0058 60 60 60
0.0493 -0.0549 1.5865 60 60 60
-1.2810 3.1930 -0.0163 60 60 60
-1.1506 6.8002 0.7640 60 60 60
3.9759 4.2288 0.2337 60 60 60
-1.0763 -3.6712 0.0301 60 60 60
-1.6532 6.5130 0.9579 60 60 60
3.6501 5.4337 0.3219 60 60 60
0.7239 -0.0008 1.8377 60 60 60
5.9424 -5.4672 0.0662 60 60 60
-4.9389 8.1966 0.3797 60 60 60
-0.0048 4.6121 0.1827 60 60 60
0.2725 0.3356 1.5083 60 60 60
5.1539 -1.3517 0.0156 60 60 60
1.2620 -0.1155 1.4846 60 60 60
0.6597 -0.0011 1.8369 60 60 60
0.9377 3.9310 -0.0112 60 60 60
4.9745 -27.8083 -0.3988 60 60 60
9.9071 13.2849 2.0664 60 60 60
2.0405 -3.2111 0.0391 60 60 60
7.6973 9.1428 0.6413 60 60 60
2.8586 -2.9599 0.0321 60 60 60
-55.1494 -33.9765 4.5197 60 60 60
0.6758 -0.0011 1.8371 60 60 60
0.8422 -0.0004 1.8391 60 60 60
0.6681 -0.0011 1.8370 60 60 60
0.7711 -0.0007 1.8383 60 60 60
2.3927 2.9025 0.0027 60 60 60
-30.3015 -19.6205 -0.0922 60 60 60
1.2711 15.8251 2.2860 60 60 60
0.9148 -3.3244 0.0391 60 60 60
-12.3976 1.0502 -0.0109 60 60 60
4.5141 -3.2169 0.0361 60 60 60
0.8629 -0.0003 1.8393 60 60 60
-2.5976 -2.5912 0.0068 60 60 60
1.8860 3.1889 0.0006 60 60 60
-12.1568 13.3606 4.8704 60 60 60
3.2153 -4.3474 0.0536 60 60 60
4.0758 -2.7784 0.0272 60 60 60
0.7511 -0.0007 1.8381 60 60 60
-17.1242 12.0340 0.8344 60 60 60
3.0873 6.4011 1.9749 60 60 60
0.2281 0.1794 1.5224 60 60 60
0.8216 -0.0005 1.8389 60 60 60
5.2372 2.2158 0.0133 60 60 60
0.8638 -0.0003 1.8394 60 60 60
1.2972 0.0740 1.4771 60 60 60
2.5832 -3.6693 0.0475 60 60 60
-24.9682 14.5156 6.0324 60 60 60
-4.7363 11.3599 0.8612 60 60 60
-19.2918 -0.0285 -0.0195 60 60 60
12.6506 -8.7150 0.1129 60 60 60
4.9652 -0.7931 0.0206 60 60 60
5.3374 -0.0141 0.0199 60 60 60
1.2329 3.8787 -0.0119 60 60 60
-13.1359 12.0867 1.3881 60 60 60
-4.8427 -8.5094 0.7336 60 60 60
6.5979 -3.5815 0.0333 60 60 60
0.8656 -0.0003 1.8394 60 60 60
0.8599 -0.0003 1.8393 60 60 60
-0.6932 -6.0771 0.0441 60 60 60
1.1088 -0.4618 1.4932 60 60 60
0.7365 -0.0008 1.8379 60 60 60
0.6941 -11.1064 -0.0528 60 60 60
22.3318 19.8784 2.1085 60 60 60
3.1942 -3.6005 0.0445 60 60 60
-3.1622 -3.4380 0.0084 60 60 60
2.7684 6.4262 0.3832 60 60 60
0.9334 -3.7141 0.0467 60 60 60
3.7838 3.2410 0.0123 60 60 60
-12.6046 8.6612 0.3498 60 60 60
2.9534 9.3577 3.4217 60 60 60
2.5536 3.2855 0.0048 60 60 60
0.8169 -0.0005 1.8388 60 60 60
3.9041 -4.3124 0.0570 60 60 60
6.9662 -22.2720 -0.0647 60 60 60
-36.7580 3.9703 8.1158 60 60 60
4.4538 -1.6332 0.0162 60 60 60
-0.5129 10.2892 0.4766 60 60 60
-12.9483 -17.3269 3.6197 60 60 60
4.4233 -5.0799 0.0676 60 60 60
1.2984 -0.2722 1.4792 60 60 60
-2.6492 -5.5387 0.0211 60 60 60
0.8396 -0.0004 1.8391 60 60 60
1.3989 -3.4267 0.0440 60 60 60
1.1527 0.3958 1.5279 60 60 60
-4.2560 12.3278 1.1035 60 60 60
-9.4557 -21.7858 2.5180 60 60 60
12.7888 -29.3801 2.8491 60 60 60
-3.1043 16.3814 0.8547 60 60 60
