ply
format ascii 1.0
element vertex 1533
property float x
property float y
property float z
property uchar red
property uchar green
property uchar blue
end_header
0.4303 2.1249 1.2988 60 60 60
4.9846 9.0006 0.7608 60 60 60
0.9858 -0.0000 1.8402 60 60 60
0.9858 -0.0000 1.8402 60 60 60
2.4400 5.5136 -0.1455 60 60 60
-8.1861 -11.6140 4.6753 60 60 60
-1.4641 1.9739 2.0327 60 60 60
-1.2491 1.9905 0.6360 60 60 60
-19.9808 -7.1808 0.2088 60 60 60
0.9858 -0.0000 1.8402 60 60 60
-1.3147 1.9097 1.0285 60 60 60
2.3275 -2.8873 -0.0449 60 60 60
0.9858 -0.0000 1.8402 60 60 60
14.6840 10.7241 0.0169 60 60 60
-8.7724 -5.8148 0.6835 60 60 60
2.2222 -10.0352 2.4602 60 60 60
-0.4689 8.0872 2.5073 60 60 60
7.6484 9.5368 3.1922 60 60 60
1.4674 -0.4177 1.5276 60 60 60
5.3525 2.9870 -0.0258 60 60 60
11.7660 -16.1550 0.3846 60 60 60
-3.9390 -0.6348 1.4882 60 60 60
-11.8861 -12.2645 4.0653 60 60 60
-5.9439 1.4992 1.8347 60 60 60
0.9858 -0.0000 1.8402 60 60 60
23.3980 -15.4433 2.6581 60 60 60
0.9061 2.4281 0.9029 60 60 60
0.0397 8.2109 3.2698 60 60 60
-1.4396 -4.2726 1.9396 60 60 60
-8.6184 -11.6937 3.6669 60 60 60
4.9575 -10.5727 0.0311 60 60 60
-2.2860 -3.4265 0.0236 60 60 60
0.5733 -0.4430 1.5046 60 60 60
-1.2643 2.1071 0.7614 60 60 60
0.1419 -0.0039 1.5979 60 60 60
-0.6972 2.8300 0.3847 60 60 60
0.9858 -0.0000 1.8402 60 60 60
-23.9107 -11.7573 4.2459 60 60 60
3.1086 -4.2973 -0.0329 60 60 60
12.7499 7.4796 0.0107 60 60 60
0.5273 2.1395 1.0164 60 60 60
4.4642 1.9184 -0.0050 60 60 60
-2.3544 -7.1785 0.1023 60 60 60
-4.4532 -25.8669 3.8655 60 60 60
1.8091 4.1939 -0.0958 60 60 60
-3.2982 -0.1380 1.1339 60 60 60
0.7501 -3.2796 -0.0084 60 60 60
-30.7330 -16.1136 4.0879 60 60 60
0.9858 -0.0000 1.8402 60 60 60
-0.1476 2.0656 1.3430 60 60 60
0.1358 -5.7418 0.4867 60 60 60
0.5115 0.0320 1.6150 60 60 60
1.4898 -0.2215 1.4984 60 60 60
15.1926 -9.8147 0.3450 60 60 60
1.4796 -0.1894 1.4941 60 60 60
0.1962 -0.0763 1.5082 60 60 60
-2.7379 -1.0433 1.0064 60 60 60
11.8201 10.3962 3.4743 60 60 60
2.3555 -3.9920 0.2165 60 60 60
-7.1410 -11.5401 2.8415 60 60 60
0.9858 -0.0000 1.8402 60 60 60
4.9161 8.9899 0.7674 60 60 60
-7.6952 -18.6303 1.7085 60 60 60
5.0312 2.7738 -0.0199 60 60 60
0.6451 2.1401 1.0755 60 60 60
1.8588 5.2860 -0.1401 60 60 60
0.4307 0.2309 1.5183 60 60 60
-3.0707 1.8406 2.5580 60 60 60
-3.4539 -11.1526 1.4521 60 60 60
1.4805 8.4384 2.6321 60 60 60
7.8722 -6.9045 0.1212 60 60 60
0.1842 0.3807 1.4900 60 60 60
5.2055 1.3670 0.0055 60 60 60
-3.1175 1.7094 0.5521 60 60 60
0.1557 2.2813 2.1703 60 60 60
0.9858 -0.0000 1.8402 60 60 60
-10.7766 1.1760 -0.1055 60 60 60
-31.8242 -17.8668 3.3049 60 60 60
4.1297 8.9123 2.1624 60 60 60
0.4762 2.1252 1.1902 60 60 60
-11.7683 -7.4078 0.6906 60 60 60
1.6951 4.5422 -0.1051 60 60 60
-2.3173 1.9160 2.5396 60 60 60
-6.1554 0.7054 -0.0393 60 60 60
5.9581 -0.7082 0.0144 60 60 60
1.9098 -10.0416 3.6667 60 60 60
5.3344 2.0287 -0.0021 60 60 60
0.9858 -0.0000 1.8402 60 60 60
-1.5016 1.9549 1.5181 60 60 60
8.8178 9.5905 0.3467 60 60 60
-4.1517 1.7486 2.9832 60 60 60
-1.9315 1.8641 1.0823 60 60 60
-1.4406 3.0072 1.5112 60 60 60
0.3321 -0.1199 1.5242 60 60 60
-1.9671 1.8228 0.6459 60 60 60
0.9858 -0.0000 1.8402 60 60 60
0.9858 -0.0000 1.8402 60 60 60
-0.0121 -3.1974 0.0036 60 60 60
0.1582 -0.2465 1.4999 60 60 60
0.9858 -0.0000 1.8402 60 60 60
1.3628 -0.4268 1.4949 60 60 60
3.3129 8.5705 -0.1354 60 60 60
-17.6856 -13.0676 5.3461 60 60 60
21.5662 -18.6253 4.7198 60 60 60
1.8159 3.9011 -0.0830 60 60 60
-3.1693 -4.3190 0.0115 60 60 60
0.9858 -0.0000 1.8402 60 60 60
1.6140 0.0609 1.5238 60 60 60
1.1622 9.5343 1.8606 60 60 60
7.0633 -14.3202 0.0599 60 60 60
-3.6540 1.6879 1.2530 60 60 60
6.4728 -4.8929 -0.0061 60 60 60
-1.3942 -4.0321 -0.0033 60 60 60
0.1869 2.1226 1.9362 60 60 60
-4.6117 1.6764 2.5150 60 60 60
-1.3010 8.0243 2.3598 60 60 60
-3.7899 1.7327 2.1847 60 60 60
-1.3230 4.2178 2.4099 60 60 60
1.4366 -0.3228 1.5166 60 60 60
-2.6212 -11.0013 0.8939 60 60 60
-0.6390 -3.4673 -0.0040 60 60 60
8.3813 9.6349 1.5268 60 60 60
-11.9554 -7.3119 0.3356 60 60 60
1.1864 8.5084 3.4623 60 60 60
-0.2558 2.0443 1.1624 60 60 60
0.9858 -0.0000 1.8402 60 60 60
-0.9138 2.3875 0.5932 60 60 60
-5.1080 -4.8158 0.0892 60 60 60
-3.4348 1.7731 1.9394 60 60 60
-9.1577 -11.6979 5.2116 60 60 60
1.8904 0.3622 1.3564 60 60 60
0.5203 0.0499 1.6184 60 60 60
3.4361 9.2019 0.6400 60 60 60
8.8972 9.5986 0.0437 60 60 60
-3.5083 -7.9334 0.0920 60 60 60
-3.3250 1.8003 2.3734 60 60 60
0.2810 0.4000 1.4971 60 60 60
3.7950 -4.7408 1.1798 60 60 60
-0.5451 8.0573 1.9351 60 60 60
0.5397 8.1783 1.1206 60 60 60
-12.1811 -4.6998 3.7475 60 60 60
0.9858 -0.0000 1.8402 60 60 60
-2.4730 1.9336 2.7600 60 60 60
4.6912 -4.2899 0.0124 60 60 60
21.5540 -18.6019 5.3696 60 60 60
1.6148 -0.1868 1.4727 60 60 60
0.9858 -0.0000 1.8402 60 60 60
0.3252 0.1245 1.5215 60 60 60
4.1467 -2.9733 -0.0366 60 60 60
0.0991 -10.4100 2.8258 60 60 60
0.8429 -10.2634 3.2596 60 60 60
0.9858 -0.0000 1.8402 60 60 60
0.6395 -0.5046 1.4962 60 60 60
1.3660 -10.3143 1.0689 60 60 60
-1.4050 2.6934 2.3823 60 60 60
1.4684 9.5456 1.4003 60 60 60
2.9302 9.7368 -0.0956 60 60 60
-3.7777 1.7186 1.8296 60 60 60
3.0838 -4.3100 -0.0318 60 60 60
-9.8573 -10.1213 0.5833 60 60 60
10.8749 -9.0179 0.1005 60 60 60
-89.3513 -1.1165 1.8039 60 60 60
0.9858 -0.0000 1.8402 60 60 60
1.4730 0.5314 1.4935 60 60 60
1.6358 9.5774 1.3907 60 60 60
-0.8368 4.2818 2.3729 60 60 60
2.4882 -2.9903 -0.0430 60 60 60
1.7977 -4.1666 0.4590 60 60 60
-1.1341 8.3294 3.1750 60 60 60
-1.4315 2.8912 1.5216 60 60 60
-1.5314 3.5335 1.6640 60 60 60
0.9858 -0.0000 1.8402 60 60 60
6.2862 -4.2521 -0.0455 60 60 60
-1.2771 2.0388 1.8089 60 60 60
-3.3056 -8.5856 0.4388 60 60 60
-7.1248 -11.5355 3.1700 60 60 60
0.9858 -0.0000 1.8402 60 60 60
0.9858 -0.0000 1.8402 60 60 60
1.5886 -0.2905 1.4674 60 60 60
2.2627 4.3045 -0.0920 60 60 60
0.9858 -0.0000 1.8402 60 60 60
5.2011 7.8522 -0.0188 60 60 60
0.9858 -0.0000 1.8402 60 60 60
-9.7769 -11.8175 4.5618 60 60 60
0.4899 0.3253 1.5199 60 60 60
-3.3849 1.7858 2.0478 60 60 60
1.2601 -3.6265 -0.0178 60 60 60
-0.6541 3.5583 1.8357 60 60 60
4.5258 8.9259 0.8050 60 60 60
1.2317 -0.5065 1.4882 60 60 60
-1.0308 -4.1722 0.3623 60 60 60
-1.5558 1.9316 1.5918 60 60 60
0.5800 0.4929 1.5074 60 60 60
0.9858 -0.0000 1.8402 60 60 60
1.2157 8.6641 -0.1996 60 60 60
8.2944 6.6496 -0.1127 60 60 60
-3.5321 -1.4595 1.2688 60 60 60
0.9858 -0.0000 1.8402 60 60 60
-8.2124 -11.9434 1.5269 60 60 60
4.8532 1.6208 -0.0016 60 60 60
-5.0203 -4.7688 1.5679 60 60 60
-5.0031 -4.2456 0.0174 60 60 60
-2.3882 1.8951 2.2739 60 60 60
-4.4013 -4.6550 1.9101 60 60 60
21.7395 -17.9040 5.3099 60 60 60
7.4788 -7.0567 0.3926 60 60 60
0.4509 0.2776 1.5165 60 60 60
2.7559 -9.9473 2.9097 60 60 60
-2.4685 1.8907 2.3752 60 60 60
5.6180 7.4447 -0.0130 60 60 60
0.5349 -10.3348 3.0409 60 60 60
0.2770 8.2486 3.2608 60 60 60
-9.7917 -12.1165 0.7915 60 60 60
1.6937 9.5409 0.4899 60 60 60
3.0978 -4.2979 0.5870 60 60 60
6.3829 8.2980 -0.0193 60 60 60
3.2056 -4.3559 0.0567 60 60 60
-3.9139 1.7483 2.3158 60 60 60
-8.8515 -5.1978 1.2437 60 60 60
-1.4496 1.9335 1.4500 60 60 60
0.0862 2.0973 0.5492 60 60 60
0.2758 0.3716 1.5015 60 60 60
0.9858 -0.0000 1.8402 60 60 60
0.6485 -3.9146 -0.0173 60 60 60
0.9858 -0.0000 1.8402 60 60 60
4.3438 -4.7562 0.4234 60 60 60
3.4126 4.3745 -0.0956 60 60 60
0.3957 0.3119 1.5207 60 60 60
5.7986 5.4552 -0.1042 60 60 60
0.9858 -0.0000 1.8402 60 60 60
0.9858 -0.0000 1.8402 60 60 60
0.9858 -0.0000 1.8402 60 60 60
5.9370 0.8552 0.0201 60 60 60
0.8519 2.1782 1.0015 60 60 60
0.1879 -0.4068 1.4834 60 60 60
-1.4297 1.9514 1.6686 60 60 60
10.2059 -6.1465 0.0926 60 60 60
-4.5552 -3.6911 0.0280 60 60 60
0.9858 -0.0000 1.8402 60 60 60
0.9858 -0.0000 1.8402 60 60 60
10.0301 -6.3389 0.1046 60 60 60
1.8798 8.6199 3.2496 60 60 60
0.8391 2.1903 1.2244 60 60 60
1.0954 6.6643 -0.2257 60 60 60
-0.9480 2.3464 0.5995 60 60 60
4.8899 -1.5476 -0.0172 60 60 60
4.4125 2.0517 -0.0107 60 60 60
-1.3178 3.0733 0.7668 60 60 60
-2.7194 -10.9717 3.8873 60 60 60
0.1554 0.0009 1.6017 60 60 60
3.1521 -9.4383 -0.1197 60 60 60
1.7964 -10.1556 1.7722 60 60 60
7.0942 9.4028 2.1087 60 60 60
5.0676 0.5630 0.0115 60 60 60
0.7628 2.1585 1.1806 60 60 60
-1.9266 1.9528 2.5618 60 60 60
0.9858 -0.0000 1.8402 60 60 60
2.9489 8.7594 2.6135 60 60 60
-0.2435 -10.4364 3.5948 60 60 60
3.0363 9.7733 0.3683 60 60 60
0.9858 -0.0000 1.8402 60 60 60
-1.4169 2.7910 0.9117 60 60 60
0.4154 2.1074 0.9654 60 60 60
1.4916 0.1610 1.4935 60 60 60
-4.2334 -9.4998 0.7889 60 60 60
0.2040 -0.0800 1.5112 60 60 60
0.9858 -0.0000 1.8402 60 60 60
0.7982 2.1471 1.1278 60 60 60
3.5161 -4.0513 -0.0476 60 60 60
1.2266 0.5392 1.4952 60 60 60
0.9858 -0.0000 1.8402 60 60 60
2.0320 6.8833 -0.1887 60 60 60
-5.2372 -4.6420 1.0267 60 60 60
1.5305 -0.0966 1.4950 60 60 60
0.9858 -0.0000 1.8402 60 60 60
2.2231 -3.8469 0.0691 60 60 60
-6.3706 1.4055 1.3131 60 60 60
0.2344 -3.2416 0.0009 60 60 60
-31.5044 -19.9583 3.2838 60 60 60
0.2784 -0.3706 1.5001 60 60 60
1.2806 -0.5040 1.4916 60 60 60
22.3897 -19.4283 2.1394 60 60 60
0.9858 -0.0000 1.8402 60 60 60
0.9858 -0.0000 1.8402 60 60 60
10.5849 10.3135 3.7341 60 60 60
-2.2327 1.9040 2.1699 60 60 60
2.3744 -3.4834 -0.0291 60 60 60
-1.4083 2.7591 1.4473 60 60 60
1.5807 -0.2910 1.4713 60 60 60
1.3605 7.7931 -0.1982 60 60 60
-1.4352 2.9628 1.9611 60 60 60
-7.3866 -4.1749 0.0151 60 60 60
4.2293 5.4142 -0.1171 60 60 60
-1.5884 1.9060 1.1334 60 60 60
0.9858 -0.0000 1.8402 60 60 60
-0.4017 -4.3478 -0.0085 60 60 60
-6.6975 1.4409 2.3821 60 60 60
1.5017 0.0235 1.5008 60 60 60
8.2223 -3.8964 -0.0704 60 60 60
-6.6692 -11.3798 4.7593 60 60 60
-1.9006 -3.3484 0.0166 60 60 60
-1.2674 -4.1923 0.8079 60 60 60
0.8286 -10.3958 1.0883 60 60 60
1.5585 -0.0327 1.5180 60 60 60
3.9726 4.3558 -0.0866 60 60 60
-17.6556 -13.1192 1.0708 60 60 60
32.5672 25.6648 2.3535 60 60 60
0.2136 -10.4136 2.5757 60 60 60
0.9858 -0.0000 1.8402 60 60 60
0.9858 -0.0000 1.8402 60 60 60
8.3866 9.5922 2.0916 60 60 60
0.9858 -0.0000 1.8402 60 60 60
-4.0837 1.6997 1.9556 60 60 60
1.6389 0.3419 1.4546 60 60 60
-10.1136 -12.0656 1.1718 60 60 60
18.2009 12.9791 0.0736 60 60 60
0.9858 -0.0000 1.8402 60 60 60
1.5665 0.1876 1.4811 60 60 60
2.3273 -3.0626 -0.0320 60 60 60
-0.6005 4.1833 1.8221 60 60 60
0.4961 0.5258 1.4884 60 60 60
1.5203 -0.1214 1.4983 60 60 60
0.8371 2.2112 0.9892 60 60 60
-3.0439 -3.2051 0.0296 60 60 60
-4.9074 1.2671 -0.0458 60 60 60
6.1154 6.4523 -0.1424 60 60 60
0.2473 0.2568 1.5119 60 60 60
-0.9515 -7.0521 0.1776 60 60 60
0.9858 -0.0000 1.8402 60 60 60
5.5803 2.4072 -0.0071 60 60 60
0.9858 -0.0000 1.8402 60 60 60
0.6531 -0.5092 1.4976 60 60 60
0.4806 0.4785 1.5012 60 60 60
8.2972 -6.3698 0.1104 60 60 60
0.9858 -0.0000 1.8402 60 60 60
-1.4301 2.6069 2.5479 60 60 60
-1.4178 2.3914 2.5198 60 60 60
-0.1646 2.0586 0.9863 60 60 60
-16.7922 2.9589 -0.2733 60 60 60
-1.5581 3.7979 2.1830 60 60 60
-1.2557 2.1189 0.6785 60 60 60
22.8827 -13.4286 5.5982 60 60 60
-2.6365 8.7289 2.4756 60 60 60
0.7542 8.3797 2.4629 60 60 60
-2.2554 -4.3029 0.1699 60 60 60
14.9302 -10.4977 0.3464 60 60 60
0.4038 -0.3388 1.5146 60 60 60
-10.1563 -4.4027 1.2270 60 60 60
-6.7570 -7.8286 0.1091 60 60 60
7.5986 9.5138 2.6427 60 60 60
-8.1194 -18.9356 1.2245 60 60 60
-0.9799 2.8464 0.7802 60 60 60
0.9858 -0.0000 1.8402 60 60 60
0.9858 -0.0000 1.8402 60 60 60
0.9858 -0.0000 1.8402 60 60 60
11.5083 10.0395 0.7030 60 60 60
-0.8013 2.2281 0.4331 60 60 60
-10.8308 1.6647 -0.1252 60 60 60
0.9858 -0.0000 1.8402 60 60 60
-13.0878 -12.4783 3.3339 60 60 60
2.4030 -4.0206 1.5633 60 60 60
-42.8140 1.4629 -0.2085 60 60 60
1.0904 -0.4150 1.5778 60 60 60
0.2116 -0.0303 1.5781 60 60 60
1.3111 0.5518 1.4818 60 60 60
5.1484 -3.3063 -0.0442 60 60 60
0.3879 -4.1183 1.3693 60 60 60
0.9858 -0.0000 1.8402 60 60 60
4.7212 -5.3071 1.8022 60 60 60
-1.3832 1.9710 1.8841 60 60 60
0.9858 -0.0000 1.8402 60 60 60
-0.1189 2.6820 0.6963 60 60 60
-0.2752 -4.8849 0.4391 60 60 60
2.2204 9.6457 0.6749 60 60 60
0.9858 -0.0000 1.8402 60 60 60
3.2345 9.8897 2.2391 60 60 60
22.6460 -14.3393 5.6613 60 60 60
0.4791 -0.3728 1.5153 60 60 60
2.4043 4.2374 -0.0910 60 60 60
22.3007 -19.5199 4.1667 60 60 60
-2.2006 -3.4940 0.0225 60 60 60
5.6833 9.1100 0.6910 60 60 60
9.5471 6.9096 -0.0915 60 60 60
1.0820 -0.4324 1.5834 60 60 60
0.5260 2.1279 1.4057 60 60 60
0.9858 -0.0000 1.8402 60 60 60
1.4820 -0.2430 1.4978 60 60 60
0.3118 0.2511 1.5182 60 60 60
0.6933 2.1560 1.2912 60 60 60
0.9858 -0.0000 1.8402 60 60 60
0.5787 -4.6329 0.1510 60 60 60
5.0630 0.4643 0.0179 60 60 60
1.1177 -0.4100 1.5745 60 60 60
3.4248 -9.9174 1.4601 60 60 60
1.5575 0.2036 1.4835 60 60 60
7.9573 -8.4299 -0.0545 60 60 60
0.8784 -3.6782 -0.0174 60 60 60
4.9357 2.1988 -0.0082 60 60 60
-2.4745 1.8811 2.0059 60 60 60
1.5738 8.5528 3.2486 60 60 60
-2.4951 -0.4760 0.8282 60 60 60
2.6164 3.4961 -0.0682 60 60 60
21.2456 -23.7168 3.0111 60 60 60
0.8690 -4.6576 0.0088 60 60 60
2.7729 3.7035 -0.0792 60 60 60
5.5511 9.1306 1.6563 60 60 60
2.5964 -10.0692 1.0210 60 60 60
1.5287 0.2655 1.4869 60 60 60
0.0723 2.0583 0.7684 60 60 60
-0.0542 -7.7571 0.7644 60 60 60
3.8231 4.5228 -0.0978 60 60 60
2.8679 9.7255 -0.0883 60 60 60
5.6007 -5.8607 0.3753 60 60 60
2.1534 -10.0876 1.9918 60 60 60
-3.3862 1.7406 1.4999 60 60 60
1.5659 9.5611 1.1715 60 60 60
-2.4406 -0.6087 0.8362 60 60 60
1.3845 4.6548 -0.1190 60 60 60
-3.4389 1.7322 1.4970 60 60 60
0.5310 0.3872 1.5152 60 60 60
1.1660 3.5981 -0.0749 60 60 60
1.1966 -4.0961 0.3205 60 60 60
-1.4584 2.0116 2.4074 60 60 60
2.2374 3.7044 -0.0705 60 60 60
0.2457 2.0795 1.0815 60 60 60
2.9086 8.7634 2.8270 60 60 60
2.8605 9.7843 1.3176 60 60 60
0.9858 -0.0000 1.8402 60 60 60
-10.5173 -4.7724 0.6147 60 60 60
-1.5189 3.7952 1.7553 60 60 60
-4.5417 -8.9024 0.3516 60 60 60
1.3392 0.4050 1.5003 60 60 60
2.8804 6.4913 -0.1750 60 60 60
0.4554 2.1038 0.9689 60 60 60
-2.9614 1.6945 0.4858 60 60 60
3.9610 -9.8219 1.6730 60 60 60
-3.3745 1.7879 2.2680 60 60 60
0.9858 -0.0000 1.8402 60 60 60
1.4706 6.5290 -0.2083 60 60 60
0.9858 -0.0000 1.8402 60 60 60
-2.3863 -1.0055 0.6394 60 60 60
0.4870 8.2148 1.8877 60 60 60
0.6581 2.7006 1.4811 60 60 60
-1.5430 1.9774 2.2642 60 60 60
-1.0373 -2.7804 0.0170 60 60 60
-1.0087 -8.0076 0.5530 60 60 60
-1.1379 8.0358 1.7693 60 60 60
1.5323 0.0606 1.4973 60 60 60
-4.2910 -3.0921 0.0312 60 60 60
1.5720 -0.3087 1.4717 60 60 60
0.9858 -0.0000 1.8402 60 60 60
-5.8020 1.5108 1.8345 60 60 60
1.9033 9.5647 0.2457 60 60 60
-0.8454 2.2426 0.5791 60 60 60
0.9858 -0.0000 1.8402 60 60 60
7.5491 -5.8592 0.0621 60 60 60
4.3949 2.0958 -0.0128 60 60 60
22.4133 -19.2072 2.8015 60 60 60
-86.4332 8.5485 1.8147 60 60 60
-1.6856 1.8596 0.5426 60 60 60
-30.2309 -20.2361 5.8369 60 60 60
3.5141 8.8479 2.6084 60 60 60
0.7436 2.2445 1.4329 60 60 60
1.7737 -10.2645 0.8108 60 60 60
-0.3139 -4.4342 0.0875 60 60 60
22.4591 -15.1347 5.0973 60 60 60
3.1136 3.4347 -0.0672 60 60 60
3.7413 8.9189 3.2721 60 60 60
11.8098 10.1426 1.7144 60 60 60
-2.3775 -8.3564 0.4926 60 60 60
0.8059 2.1519 0.8347 60 60 60
0.7899 2.1717 1.2310 60 60 60
-1.6868 1.9783 2.5206 60 60 60
0.1127 1.9224 2.2863 60 60 60
2.2321 5.1150 -0.1264 60 60 60
1.0437 0.4320 1.5794 60 60 60
2.6802 -3.0887 -0.0415 60 60 60
-0.7709 2.2484 0.5151 60 60 60
17.5210 -33.7371 8.0314 60 60 60
3.0122 4.2309 -0.0878 60 60 60
-1.8925 1.9718 2.3900 60 60 60
12.7140 10.2033 2.4143 60 60 60
-3.4091 -0.0153 1.1165 60 60 60
11.6641 10.1221 1.7182 60 60 60
6.0915 2.1204 0.0027 60 60 60
2.6297 8.7532 3.4685 60 60 60
-1.4379 2.9147 0.8822 60 60 60
1.4585 -0.2639 1.4877 60 60 60
-1.4505 3.1941 2.3389 60 60 60
-7.0358 -4.0693 1.9902 60 60 60
0.9858 -0.0000 1.8402 60 60 60
-33.4307 -21.5140 9.1131 60 60 60
2.5032 -3.9539 1.3618 60 60 60
0.9858 -0.0000 1.8402 60 60 60
9.9521 -6.4428 0.1083 60 60 60
-4.2305 -0.0056 1.5959 60 60 60
11.7689 -16.5766 0.3666 60 60 60
-4.4836 -4.6660 1.7440 60 60 60
-3.8050 -8.7069 0.6412 60 60 60
1.5801 -0.3041 1.4686 60 60 60
1.4494 -0.2699 1.4911 60 60 60
-1.1684 -4.1304 0.1192 60 60 60
7.5513 6.7906 -0.0052 60 60 60
2.1077 6.8489 -0.1862 60 60 60
-1.5097 1.9902 2.5685 60 60 60
0.4318 -0.2932 1.5197 60 60 60
0.9858 -0.0000 1.8402 60 60 60
-1.4516 3.2653 2.7360 60 60 60
11.5613 10.1211 2.0638 60 60 60
5.9115 -5.7140 1.5951 60 60 60
0.1431 0.1650 1.5043 60 60 60
2.1267 -3.3753 -0.0302 60 60 60
0.9858 -0.0000 1.8402 60 60 60
6.7844 9.1958 2.8691 60 60 60
-0.6088 -10.5666 0.6337 60 60 60
0.9858 -0.0000 1.8402 60 60 60
1.4373 0.4099 1.5088 60 60 60
0.9858 -0.0000 1.8402 60 60 60
1.9583 -10.1366 1.2892 60 60 60
2.6022 -4.0137 0.1646 60 60 60
-1.7737 1.9223 1.5027 60 60 60
-4.4112 1.6690 0.7678 60 60 60
-11.8483 -7.3532 0.6895 60 60 60
19.5230 -29.3400 4.9457 60 60 60
-2.2676 1.8257 1.0282 60 60 60
5.2083 9.0497 0.9719 60 60 60
4.1340 -4.0206 -0.0641 60 60 60
3.1329 6.3779 -0.1788 60 60 60
1.3868 0.3713 1.4919 60 60 60
0.3080 0.2352 1.5192 60 60 60
-1.9976 1.8586 1.0716 60 60 60
-0.3193 2.6768 0.6747 60 60 60
-0.0988 2.0154 0.6933 60 60 60
-3.2940 1.8227 2.5916 60 60 60
1.0471 7.8734 -0.2012 60 60 60
3.5868 8.6772 2.8051 60 60 60
0.7949 2.7095 1.4108 60 60 60
0.9858 -0.0000 1.8402 60 60 60
0.9858 -0.0000 1.8402 60 60 60
-3.5201 1.7968 2.6254 60 60 60
-1.2990 3.0847 0.7665 60 60 60
-2.5620 -0.5472 0.7147 60 60 60
2.6832 5.9733 -0.1665 60 60 60
0.9858 -0.0000 1.8402 60 60 60
2.3650 9.6818 1.1206 60 60 60
5.6703 9.1315 1.4121 60 60 60
0.9858 -0.0000 1.8402 60 60 60
3.8317 -4.7805 0.0843 60 60 60
0.4259 0.2560 1.5285 60 60 60
1.4852 -0.2559 1.4927 60 60 60
-16.8982 1.0995 -0.2568 60 60 60
0.9858 -0.0000 1.8402 60 60 60
1.3421 -0.5334 1.4753 60 60 60
0.3331 3.2339 -0.0655 60 60 60
-1.0299 7.9389 2.3398 60 60 60
2.6103 4.4789 -0.0939 60 60 60
-0.6981 -5.7003 0.1996 60 60 60
1.3450 0.3972 1.5010 60 60 60
1.5040 0.0327 1.5162 60 60 60
3.1069 -9.9066 2.8966 60 60 60
0.9858 -0.0000 1.8402 60 60 60
-3.8180 -4.5092 0.0099 60 60 60
0.9858 -0.0000 1.8402 60 60 60
4.5766 1.6350 -0.0010 60 60 60
-33.3002 -21.4465 10.0600 60 60 60
-1.3972 2.6112 2.2064 60 60 60
9.0665 9.6444 0.6123 60 60 60
-1.5205 1.9907 2.4152 60 60 60
5.5803 7.4802 -0.0130 60 60 60
3.8037 5.7981 -0.1332 60 60 60
0.2808 2.2524 0.7027 60 60 60
1.9646 9.4707 -0.2035 60 60 60
0.8461 -4.3994 -0.0085 60 60 60
1.5024 0.3805 1.5267 60 60 60
0.9858 -0.0000 1.8402 60 60 60
2.6881 3.1667 -0.0546 60 60 60
9.3349 9.6623 -0.0154 60 60 60
0.9858 -0.0000 1.8402 60 60 60
1.7192 -4.0756 0.1678 60 60 60
-0.0718 -0.1755 1.4764 60 60 60
0.8158 2.1972 1.0534 60 60 60
-0.3188 8.0726 1.7346 60 60 60
6.1263 -11.9409 0.0427 60 60 60
0.9858 -0.0000 1.8402 60 60 60
3.9375 5.0085 -0.1099 60 60 60
-0.3995 -2.8902 0.0114 60 60 60
-5.4834 0.8610 -0.0338 60 60 60
-0.2293 -10.5804 0.8702 60 60 60
0.9858 -0.0000 1.8402 60 60 60
5.8976 9.0380 0.4346 60 60 60
-1.3052 3.8383 2.1667 60 60 60
1.3219 0.4137 1.5042 60 60 60
3.1731 7.0023 -0.1683 60 60 60
1.0496 -3.6591 -0.0172 60 60 60
0.4555 -0.2653 1.5198 60 60 60
0.9858 -0.0000 1.8402 60 60 60
4.2596 -4.1763 0.0015 60 60 60
0.0630 -0.1156 1.5006 60 60 60
-8.9738 -3.6016 0.5589 60 60 60
1.2132 -4.2647 0.4804 60 60 60
-2.0096 1.8455 1.1571 60 60 60
5.4455 -1.7067 -0.0127 60 60 60
-2.5588 -7.9886 0.1266 60 60 60
21.8547 -19.1882 0.8168 60 60 60
2.2107 8.2207 -0.1652 60 60 60
-1.4560 3.1810 1.5890 60 60 60
-1.1005 2.2308 0.6014 60 60 60
4.2328 -5.0360 1.8140 60 60 60
2.4622 -3.9378 0.1032 60 60 60
0.9858 -0.0000 1.8402 60 60 60
0.6488 2.1143 0.8522 60 60 60
-15.7175 -12.8660 4.0550 60 60 60
3.9529 3.8380 -0.0708 60 60 60
0.2777 -0.1466 1.5168 60 60 60
7.4172 9.3565 0.2394 60 60 60
5.9841 -0.2652 0.0199 60 60 60
0.1352 -0.1017 1.5047 60 60 60
1.5755 -0.0407 1.5082 60 60 60
-1.3753 2.4847 2.4417 60 60 60
4.5208 -3.5199 -0.0427 60 60 60
7.4300 5.8915 -0.0982 60 60 60
4.7776 7.1860 -0.0500 60 60 60
1.0117 -4.4528 0.3175 60 60 60
2.4092 5.5261 -0.1453 60 60 60
6.6226 -4.7384 -0.0155 60 60 60
21.7399 -19.7621 0.8204 60 60 60
-3.4802 1.6878 0.5794 60 60 60
-0.2520 2.0267 1.0462 60 60 60
0.9858 -0.0000 1.8402 60 60 60
1.6636 -10.0863 3.1996 60 60 60
-9.7598 -11.8108 4.9419 60 60 60
23.4327 -15.2833 2.6527 60 60 60
6.0790 4.9599 -0.0803 60 60 60
0.9858 -0.0000 1.8402 60 60 60
-1.6062 -4.3109 1.5955 60 60 60
2.1937 9.7031 2.0406 60 60 60
0.9858 -0.0000 1.8402 60 60 60
-0.6119 8.1190 3.5027 60 60 60
1.2485 9.4345 -0.1513 60 60 60
0.9858 -0.0000 1.8402 60 60 60
0.7896 2.2067 1.2763 60 60 60
3.7922 -9.8012 2.3939 60 60 60
7.5634 9.4462 1.5641 60 60 60
-1.3593 -2.8030 0.0219 60 60 60
7.0555 9.3698 1.8468 60 60 60
6.3054 4.5001 -0.0594 60 60 60
-10.0212 -11.8328 5.3805 60 60 60
1.6304 9.5278 2.2847 60 60 60
1.5541 -0.0155 1.5210 60 60 60
7.1390 -7.1056 -0.0210 60 60 60
0.4087 0.2103 1.5302 60 60 60
-1.1216 -8.0803 0.3410 60 60 60
1.2104 0.5133 1.4953 60 60 60
-1.1531 8.0046 1.3836 60 60 60
-2.1894 -3.9608 0.0104 60 60 60
1.0709 -4.1660 0.0782 60 60 60
1.5437 -3.7908 -0.0215 60 60 60
-1.3517 1.9025 0.7124 60 60 60
0.1305 2.1199 1.6730 60 60 60
-9.9008 -4.9664 0.9358 60 60 60
0.9858 -0.0000 1.8402 60 60 60
-5.0502 1.5519 1.2520 60 60 60
9.9859 -14.5303 1.3801 60 60 60
-1.4609 3.3271 1.8674 60 60 60
-4.0240 1.7712 2.9586 60 60 60
1.5574 -0.0190 1.5190 60 60 60
4.7685 3.3064 -0.0446 60 60 60
-1.4164 2.7517 0.8294 60 60 60
-17.7670 -4.4343 1.7960 60 60 60
7.8920 9.3553 -0.0937 60 60 60
-0.2647 2.0265 1.1055 60 60 60
-1.5496 3.7386 2.1799 60 60 60
0.1678 2.0842 1.4097 60 60 60
-8.7704 -4.3896 0.0198 60 60 60
0.0815 0.3100 1.4902 60 60 60
-6.0563 -8.1793 0.1156 60 60 60
0.3309 2.1053 1.7226 60 60 60
-1.2389 -4.2350 1.5960 60 60 60
-9.7012 -29.5682 3.7148 60 60 60
9.4204 -9.0538 0.2627 60 60 60
0.9858 -0.0000 1.8402 60 60 60
0.9858 -0.0000 1.8402 60 60 60
1.4995 -0.0137 1.5192 60 60 60
-0.1930 2.0510 1.2265 60 60 60
11.8854 10.3396 3.4722 60 60 60
0.9858 -0.0000 1.8402 60 60 60
5.1741 1.4961 0.0033 60 60 60
-2.5172 -1.0234 0.7815 60 60 60
32.4233 24.9531 2.3320 60 60 60
-1.4007 2.7744 1.7882 60 60 60
0.9858 -0.0000 1.8402 60 60 60
2.8469 9.8114 2.0156 60 60 60
-6.5203 -0.7060 1.3079 60 60 60
0.4405 0.4249 1.5058 60 60 60
-1.4348 2.9268 1.9609 60 60 60
-2.1264 1.8706 1.6517 60 60 60
-0.2460 2.0685 1.7911 60 60 60
0.4557 -0.4815 1.4882 60 60 60
-3.1188 1.7764 1.6190 60 60 60
0.5164 0.3727 1.5148 60 60 60
5.7017 -4.7332 0.0087 60 60 60
-1.3064 1.9750 1.8819 60 60 60
6.2099 9.2434 3.6216 60 60 60
-4.7352 -1.4907 1.1342 60 60 60
-2.5808 -0.4258 0.7152 60 60 60
1.4323 0.3914 1.5171 60 60 60
1.5152 0.3615 1.5260 60 60 60
0.9858 -0.0000 1.8402 60 60 60
7.1268 4.4871 -0.0623 60 60 60
0.3991 0.1881 1.5296 60 60 60
0.1416 0.1355 1.5059 60 60 60
8.7917 -5.7501 0.0891 60 60 60
-2.5280 -0.4598 0.9088 60 60 60
8.3658 -7.7086 1.4755 60 60 60
-29.6698 -20.9306 7.5631 60 60 60
7.6273 -6.9744 0.1496 60 60 60
11.5699 10.0247 0.0142 60 60 60
-0.3861 -3.0948 0.0065 60 60 60
2.5368 -9.9430 3.3910 60 60 60
0.3944 -0.3580 1.5055 60 60 60
0.9858 -0.0000 1.8402 60 60 60
-3.7140 1.6575 0.6487 60 60 60
-5.2761 -4.6832 1.5696 60 60 60
0.4404 8.2018 1.8899 60 60 60
3.5725 4.2452 -0.0931 60 60 60
-9.3282 -13.7476 2.2763 60 60 60
5.5934 9.2386 3.5957 60 60 60
12.7577 -9.4184 0.2082 60 60 60
0.0008 2.0782 1.6238 60 60 60
0.9858 -0.0000 1.8402 60 60 60
2.3957 -10.0289 2.4533 60 60 60
0.9858 -0.0000 1.8402 60 60 60
0.9858 -0.0000 1.8402 60 60 60
-9.1487 1.3627 -0.0886 60 60 60
-9.1833 -11.8826 1.9117 60 60 60
4.7104 8.4019 -0.0459 60 60 60
3.1297 3.0936 -0.0546 60 60 60
1.9700 4.1216 -0.0888 60 60 60
3.6164 -9.8579 2.1649 60 60 60
-1.4357 2.5676 2.2908 60 60 60
-1.1559 2.0020 1.8772 60 60 60
0.9858 -0.0000 1.8402 60 60 60
-7.7647 -5.4280 0.2990 60 60 60
2.0915 -10.1255 1.7586 60 60 60
0.2336 -0.2054 1.5121 60 60 60
2.0938 -4.0616 0.2339 60 60 60
0.4894 0.3339 1.5169 60 60 60
0.9858 -0.0000 1.8402 60 60 60
-7.7728 -5.5005 0.2906 60 60 60
2.3035 -3.7307 -0.0105 60 60 60
-2.4557 -0.5305 0.8365 60 60 60
22.6378 -14.5312 4.4456 60 60 60
1.2812 0.4894 1.5024 60 60 60
8.5899 -6.0265 0.0968 60 60 60
7.6547 9.5034 2.3716 60 60 60
4.6624 2.8233 -0.0334 60 60 60
5.3519 9.1817 3.3334 60 60 60
18.0168 -10.4833 1.4853 60 60 60
1.4684 9.5108 0.5067 60 60 60
-1.7871 -10.8754 4.0563 60 60 60
-1.5310 3.5933 2.3784 60 60 60
0.1931 0.0591 1.5506 60 60 60
-1.4507 1.9148 1.1540 60 60 60
6.0463 -6.1825 0.8387 60 60 60
0.3099 -0.0693 1.5371 60 60 60
1.8845 -4.1712 -0.0081 60 60 60
-2.7461 -0.7738 1.0223 60 60 60
0.9858 -0.0000 1.8402 60 60 60
-2.0802 -10.8933 3.5438 60 60 60
11.5593 10.0651 1.0413 60 60 60
9.6475 -8.8969 3.1522 60 60 60
1.6077 0.0122 1.5280 60 60 60
4.0303 8.8508 0.8506 60 60 60
3.6793 3.6660 -0.0701 60 60 60
2.0738 9.5970 0.2294 60 60 60
17.6661 -33.7129 5.3597 60 60 60
-3.6165 -3.1742 0.0318 60 60 60
5.2288 -3.1718 -0.0421 60 60 60
-3.6479 -2.4338 0.0308 60 60 60
-4.3039 -3.0593 0.0338 60 60 60
0.9858 -0.0000 1.8402 60 60 60
-1.4084 2.3398 1.0060 60 60 60
-1.3844 2.4068 1.9571 60 60 60
-1.0886 3.4214 1.5735 60 60 60
6.9417 -6.7108 0.2755 60 60 60
-2.8053 -4.0270 0.0088 60 60 60
0.9858 -0.0000 1.8402 60 60 60
3.2909 3.6128 -0.0652 60 60 60
5.5609 9.0605 0.2237 60 60 60
0.9279 2.2711 1.2549 60 60 60
1.4671 0.2259 1.4948 60 60 60
7.4783 9.3970 0.7668 60 60 60
0.8553 2.1287 0.5903 60 60 60
0.9858 -0.0000 1.8402 60 60 60
-4.4747 -0.5452 1.3233 60 60 60
6.4145 9.2183 2.6140 60 60 60
6.4703 8.2229 -0.0213 60 60 60
-2.5160 1.8447 1.8232 60 60 60
1.3139 0.4397 1.4954 60 60 60
0.9858 -0.0000 1.8402 60 60 60
-2.3261 1.9249 2.6341 60 60 60
5.0995 1.7489 -0.0000 60 60 60
-0.0402 2.0524 1.0046 60 60 60
-16.6921 -12.8588 6.2385 60 60 60
0.9858 -0.0000 1.8402 60 60 60
0.2794 0.1376 1.5193 60 60 60
-2.5974 1.8747 2.2009 60 60 60
-2.5302 8.5042 2.6735 60 60 60
3.6482 -8.7548 -0.0409 60 60 60
0.3572 0.2418 1.5194 60 60 60
0.2200 2.0569 0.7247 60 60 60
-0.5501 3.5578 1.9219 60 60 60
0.9858 -0.0000 1.8402 60 60 60
7.3866 9.2969 2.8899 60 60 60
-3.6543 -4.6660 0.0037 60 60 60
-1.3216 1.9954 2.0239 60 60 60
-10.8417 -11.9825 5.1359 60 60 60
0.9858 -0.0000 1.8402 60 60 60
1.6198 0.1633 1.4745 60 60 60
-0.1878 2.0615 1.6241 60 60 60
1.5390 0.2425 1.4863 60 60 60
0.9858 -0.0000 1.8402 60 60 60
-0.0801 -0.1831 1.4731 60 60 60
0.9858 -0.0000 1.8402 60 60 60
-0.1998 2.0558 1.9012 60 60 60
4.7849 3.9948 -0.0627 60 60 60
-0.3561 -10.5301 0.6303 60 60 60
0.9858 -0.0000 1.8402 60 60 60
1.1256 -4.0899 1.0489 60 60 60
-1.4279 2.9574 2.5004 60 60 60
1.1062 -0.4238 1.5833 60 60 60
-5.2627 -19.5881 1.5928 60 60 60
5.0723 -0.3592 0.0150 60 60 60
-9.6187 -11.7963 4.9179 60 60 60
0.5466 -6.6526 0.2591 60 60 60
3.6669 3.2445 -0.0552 60 60 60
-0.9580 -3.3178 0.0067 60 60 60
0.3961 2.0944 1.2518 60 60 60
-1.9561 1.9305 2.1468 60 60 60
1.9267 4.1516 -0.0948 60 60 60
0.0805 0.2208 1.5000 60 60 60
-8.5870 -9.8021 0.6571 60 60 60
0.2076 3.2459 1.8083 60 60 60
6.0308 6.9730 -0.0038 60 60 60
1.6124 -3.5596 -0.0267 60 60 60
0.0932 -4.1466 -0.0162 60 60 60
0.9858 -0.0000 1.8402 60 60 60
2.1002 -10.0710 2.2312 60 60 60
0.8366 8.4152 3.0570 60 60 60
-0.1928 2.0377 1.8461 60 60 60
1.5641 4.9612 -0.1263 60 60 60
-0.0938 8.1471 2.4901 60 60 60
7.9744 9.1313 -0.0801 60 60 60
1.4661 0.2360 1.4929 60 60 60
0.9858 -0.0000 1.8402 60 60 60
3.0024 -9.9583 1.2423 60 60 60
8.0420 4.3651 -0.0506 60 60 60
-10.4188 -4.9840 2.6428 60 60 60
18.3366 -30.8176 6.7392 60 60 60
-4.2482 1.9665 -0.0623 60 60 60
1.4909 -0.1435 1.4957 60 60 60
1.8311 -7.2780 0.7471 60 60 60
0.6578 2.2432 1.4897 60 60 60
0.9858 -0.0000 1.8402 60 60 60
13.1554 -8.5183 0.2079 60 60 60
-1.1498 2.4806 0.5952 60 60 60
3.1302 4.1594 -0.0898 60 60 60
-6.4170 -3.6368 0.0311 60 60 60
0.9858 -0.0000 1.8402 60 60 60
-1.3928 -2.7783 0.0225 60 60 60
3.3054 -4.3923 0.5342 60 60 60
3.5152 -3.6612 -0.0481 60 60 60
0.9858 -0.0000 1.8402 60 60 60
0.9858 -0.0000 1.8402 60 60 60
-0.3526 -4.8206 0.3293 60 60 60
-3.4401 0.2391 1.1108 60 60 60
-16.2111 -12.8065 5.6312 60 60 60
-3.7608 1.7558 2.3021 60 60 60
0.3367 -4.1075 1.9546 60 60 60
22.8707 -13.6048 5.0000 60 60 60
-3.8335 -2.8959 0.0324 60 60 60
0.9858 -0.0000 1.8402 60 60 60
-10.5275 -8.4767 0.0082 60 60 60
-4.0950 -7.4881 0.1363 60 60 60
-2.0713 1.8292 0.9756 60 60 60
3.5597 -8.8292 -0.0455 60 60 60
-0.4467 -3.2902 0.0017 60 60 60
11.2755 10.1264 3.0792 60 60 60
0.4924 2.0812 0.8619 60 60 60
4.8011 3.9655 -0.0606 60 60 60
-5.6508 -4.5654 1.9464 60 60 60
-2.9029 -1.1875 1.0610 60 60 60
-2.8025 1.7781 1.2371 60 60 60
-23.8901 -11.7422 3.5966 60 60 60
5.4928 -2.6770 -0.0368 60 60 60
-2.7369 -1.0890 1.0032 60 60 60
-1.4442 2.9695 1.0577 60 60 60
15.6960 -8.4848 0.3390 60 60 60
0.9858 -0.0000 1.8402 60 60 60
2.9019 8.8006 3.4746 60 60 60
0.5742 2.1468 1.1852 60 60 60
0.4568 2.1307 1.5107 60 60 60
0.9858 -0.0000 1.8402 60 60 60
0.9858 -0.0000 1.8402 60 60 60
-5.6547 -4.4981 1.1998 60 60 60
0.9858 -0.0000 1.8402 60 60 60
-1.4093 1.9115 1.3094 60 60 60
-3.5363 1.6752 0.4457 60 60 60
-3.1559 -11.0966 0.8936 60 60 60
-3.6259 -4.5708 1.5861 60 60 60
3.3881 9.4691 1.5303 60 60 60
0.3579 -0.2464 1.5170 60 60 60
-4.9415 1.5430 0.8270 60 60 60
1.4837 -0.4119 1.5227 60 60 60
0.9858 -0.0000 1.8402 60 60 60
-1.3964 -10.6882 0.6394 60 60 60
0.9858 -0.0000 1.8402 60 60 60
0.9858 -0.0000 1.8402 60 60 60
1.1073 0.4214 1.5877 60 60 60
0.0758 1.8081 2.0772 60 60 60
0.2930 0.4639 1.4856 60 60 60
-0.8591 4.2656 2.3733 60 60 60
7.2047 9.4271 2.3702 60 60 60
-0.6436 2.5878 0.3179 60 60 60
0.3442 2.0571 0.6086 60 60 60
-3.9332 1.6460 0.8541 60 60 60
-1.4712 3.3651 1.6727 60 60 60
0.6006 2.1904 1.4994 60 60 60
1.0618 -0.4528 1.5754 60 60 60
-0.7914 8.0720 1.9465 60 60 60
-1.8961 -3.7184 0.0155 60 60 60
0.9858 -0.0000 1.8402 60 60 60
0.7932 -10.2679 3.5068 60 60 60
0.9858 -0.0000 1.8402 60 60 60
-0.5976 -4.1915 0.7306 60 60 60
-1.6229 -4.2558 1.1299 60 60 60
4.7635 -3.1878 -0.0388 60 60 60
1.4470 -0.4351 1.5117 60 60 60
-6.5342 -0.6625 1.3075 60 60 60
-1.5200 -2.9663 0.0212 60 60 60
0.1082 2.0815 1.5167 60 60 60
1.5169 0.1513 1.4973 60 60 60
-1.2538 2.0183 0.6265 60 60 60
0.9858 -0.0000 1.8402 60 60 60
-4.8723 0.0576 1.2917 60 60 60
1.4181 -0.3382 1.5034 60 60 60
-10.7517 0.9708 -0.0981 60 60 60
2.4529 8.7055 3.2493 60 60 60
-2.0725 -3.5938 0.0194 60 60 60
-3.2255 -6.1876 0.0664 60 60 60
7.4555 -3.5837 -0.0593 60 60 60
0.4351 -0.4305 1.4988 60 60 60
1.1590 -6.4791 0.2737 60 60 60
-14.9971 -12.7583 3.9774 60 60 60
0.2156 0.0399 1.5795 60 60 60
-10.3587 -5.5067 -0.0138 60 60 60
0.9858 -0.0000 1.8402 60 60 60
1.8209 0.4425 1.3737 60 60 60
-2.5325 -0.8991 0.8803 60 60 60
-1.3553 -4.0200 0.0073 60 60 60
6.0144 3.7350 -0.0394 60 60 60
-2.7954 -0.4507 1.0266 60 60 60
-1.5555 1.9042 1.1390 60 60 60
3.5836 6.7657 -0.1662 60 60 60
9.6283 6.6483 -0.0824 60 60 60
4.8886 9.0012 1.2282 60 60 60
4.8115 -1.7844 -0.0223 60 60 60
-4.1320 -0.4805 1.5970 60 60 60
0.4061 -3.2597 -0.0003 60 60 60
1.5722 -0.0472 1.4914 60 60 60
0.2473 0.2016 1.5195 60 60 60
0.9858 -0.0000 1.8402 60 60 60
0.9858 -0.0000 1.8402 60 60 60
2.5069 -3.9468 0.5367 60 60 60
0.2672 2.9789 1.7394 60 60 60
1.5293 -0.1200 1.4930 60 60 60
1.4846 -0.2334 1.4987 60 60 60
0.4656 0.2929 1.5189 60 60 60
0.0662 2.0317 0.7148 60 60 60
1.6160 0.2030 1.4712 60 60 60
1.4582 -3.3925 -0.0248 60 60 60
5.0726 -10.5087 0.0284 60 60 60
-4.1946 -0.2489 1.2317 60 60 60
3.5040 3.0561 -0.0547 60 60 60
0.9858 -0.0000 1.8402 60 60 60
2.3728 9.2155 -0.1811 60 60 60
11.4961 10.4420 3.4616 60 60 60
1.4662 0.5056 1.5043 60 60 60
0.9858 -0.0000 1.8402 60 60 60
0.4828 -3.2687 -0.0029 60 60 60
0.1678 2.0436 0.6592 60 60 60
3.3941 5.4475 -0.1252 60 60 60
1.5083 0.1459 1.4856 60 60 60
4.5413 3.6621 -0.0586 60 60 60
-1.3574 2.4087 2.4312 60 60 60
2.7171 4.8430 -0.1085 60 60 60
-3.5707 -1.4433 1.2654 60 60 60
-1.6923 1.8861 1.0393 60 60 60
5.1936 2.4016 -0.0093 60 60 60
0.9858 -0.0000 1.8402 60 60 60
0.3437 0.1982 1.5208 60 60 60
-1.0685 2.2471 0.6040 60 60 60
30.2579 22.9871 6.6450 60 60 60
1.5170 -0.1613 1.4944 60 60 60
-2.5845 -0.6344 0.9748 60 60 60
4.6350 3.5037 -0.0487 60 60 60
-1.6180 1.8856 1.2102 60 60 60
-7.9717 -18.8975 1.2224 60 60 60
3.1366 -4.3835 1.7275 60 60 60
-3.8919 -1.3930 1.4712 60 60 60
5.7434 -4.7182 0.0022 60 60 60
-0.5430 2.1071 0.7000 60 60 60
-6.1787 1.4615 1.6653 60 60 60
19.3234 -27.2089 5.5097 60 60 60
1.1178 0.4151 1.5749 60 60 60
-0.4688 8.0444 1.5500 60 60 60
9.9103 -14.2192 1.3845 60 60 60
0.9858 -0.0000 1.8402 60 60 60
2.0493 9.6585 1.5941 60 60 60
-4.3648 -11.2503 3.2196 60 60 60
-1.7129 1.8770 1.0369 60 60 60
0.9026 -3.2812 -0.0145 60 60 60
3.2623 -9.9041 2.1793 60 60 60
0.9858 -0.0000 1.8402 60 60 60
0.1869 0.3465 1.4971 60 60 60
0.9858 -0.0000 1.8402 60 60 60
9.9159 5.7029 -0.0557 60 60 60
22.3953 -15.4675 4.5014 60 60 60
15.4512 -41.7191 8.2877 60 60 60
0.2438 0.2163 1.5163 60 60 60
-2.9657 -0.5162 1.0853 60 60 60
0.1423 0.1158 1.5074 60 60 60
7.6059 -7.0357 0.1462 60 60 60
0.3790 0.4739 1.4897 60 60 60
-4.5448 -2.6733 0.0365 60 60 60
-8.4880 -29.3447 3.6310 60 60 60
7.6489 -5.7412 0.0582 60 60 60
0.0902 2.0944 1.3501 60 60 60
2.5427 3.8351 -0.0779 60 60 60
6.1823 -1.8828 -0.0146 60 60 60
0.5164 2.1445 1.2948 60 60 60
1.4124 0.5663 1.4610 60 60 60
-2.9685 0.2780 0.8998 60 60 60
0.9858 -0.0000 1.8402 60 60 60
0.2069 2.1186 1.3494 60 60 60
-4.7477 -4.5271 0.0142 60 60 60
1.3846 -3.6031 -0.0190 60 60 60
4.5423 8.9360 1.0284 60 60 60
-2.6830 -0.2254 0.9668 60 60 60
0.6576 0.5180 1.4985 60 60 60
-2.9904 1.7575 1.2154 60 60 60
4.4503 4.4563 -0.0852 60 60 60
-6.0536 1.5367 2.5080 60 60 60
3.3038 -3.8163 -0.0431 60 60 60
0.2895 0.1813 1.5190 60 60 60
1.6988 -0.0457 1.5223 60 60 60
0.9182 9.5064 2.0926 60 60 60
-2.9402 -3.3113 0.0289 60 60 60
0.9858 -0.0000 1.8402 60 60 60
0.3767 2.1292 1.0722 60 60 60
-3.0539 1.7167 0.7867 60 60 60
0.9858 -0.0000 1.8402 60 60 60
4.8719 8.9965 1.0005 60 60 60
4.2303 9.0065 3.2884 60 60 60
21.4144 -19.1173 5.4151 60 60 60
0.7403 8.3985 3.0594 60 60 60
0.9858 -0.0000 1.8402 60 60 60
1.5783 0.0329 1.5251 60 60 60
-4.9301 -3.1149 0.0399 60 60 60
17.7803 -11.5825 1.5023 60 60 60
0.7067 -10.4115 1.0927 60 60 60
-5.2590 -3.9093 0.0237 60 60 60
0.2139 -0.1013 1.5141 60 60 60
0.3861 -3.2672 -0.0052 60 60 60
0.9858 -0.0000 1.8402 60 60 60
-7.3442 -4.2151 0.0176 60 60 60
-3.9844 0.4208 1.2564 60 60 60
2.9358 -10.0054 0.7667 60 60 60
1.5422 0.4179 1.5397 60 60 60
1.3814 -5.9477 0.2393 60 60 60
4.2341 -5.0068 1.1158 60 60 60
0.9042 -3.0875 -0.0016 60 60 60
0.9858 -0.0000 1.8402 60 60 60
1.2684 -0.4779 1.4907 60 60 60
-1.3298 2.2558 1.3480 60 60 60
0.9858 -0.0000 1.8402 60 60 60
0.6863 2.1638 1.1800 60 60 60
2.7060 8.7359 3.0385 60 60 60
17.9763 -10.4620 1.0225 60 60 60
-11.0352 -12.0269 4.7643 60 60 60
-0.2685 2.0163 0.9219 60 60 60
-1.3289 2.2931 2.3374 60 60 60
4.0709 -5.8330 0.5899 60 60 60
0.5764 -5.7013 0.4863 60 60 60
0.1886 -10.3608 3.5553 60 60 60
0.9858 -0.0000 1.8402 60 60 60
1.7452 8.4149 -0.1745 60 60 60
-3.6407 1.7795 2.5249 60 60 60
3.8115 8.7905 0.4345 60 60 60
1.8119 -4.1896 -0.0055 60 60 60
0.5146 0.3787 1.5118 60 60 60
-1.4095 2.7613 1.0984 60 60 60
-1.8577 -2.6767 0.0305 60 60 60
-1.9392 1.8316 0.7409 60 60 60
-2.1619 -3.5328 0.0191 60 60 60
1.4854 3.7436 -0.0735 60 60 60
0.0932 -10.5151 1.1113 60 60 60
5.1379 9.0343 0.9782 60 60 60
1.4577 -6.4394 0.2651 60 60 60
-5.6297 1.5598 2.1510 60 60 60
5.7763 9.0924 0.1957 60 60 60
-2.4602 -0.5518 0.8341 60 60 60
3.2900 -9.8207 3.6020 60 60 60
2.7074 0.4836 0.9995 60 60 60
-1.1943 2.0425 2.3699 60 60 60
0.9858 -0.0000 1.8402 60 60 60
0.4332 -4.1136 1.9499 60 60 60
14.6833 9.6157 0.0599 60 60 60
-1.7756 1.8712 0.9436 60 60 60
-1.4323 2.9277 1.1578 60 60 60
-4.8895 1.5690 0.9783 60 60 60
0.0599 2.0837 1.6767 60 60 60
0.9858 -0.0000 1.8402 60 60 60
4.2334 8.9672 2.6065 60 60 60
1.0343 -3.8914 -0.0214 60 60 60
3.1919 4.1022 -0.0848 60 60 60
-2.3170 -4.8901 -0.0027 60 60 60
1.6416 0.3483 1.4520 60 60 60
-1.4317 2.8463 0.9896 60 60 60
-1.5269 3.4931 0.8473 60 60 60
5.7739 9.1299 0.9232 60 60 60
3.2991 6.2637 -0.1724 60 60 60
-3.2909 -6.8771 0.1059 60 60 60
0.9858 -0.0000 1.8402 60 60 60
7.4207 -3.6626 -0.0596 60 60 60
5.0336 9.0646 2.1432 60 60 60
9.2850 -7.4829 0.1210 60 60 60
-1.2449 -4.1939 0.5744 60 60 60
1.0706 9.4329 0.3137 60 60 60
3.7018 8.9278 3.4980 60 60 60
0.3037 -0.0935 1.5328 60 60 60
3.3946 -9.8501 2.8844 60 60 60
5.9141 -1.1840 0.0007 60 60 60
0.9858 -0.0000 1.8402 60 60 60
5.4084 4.8528 -0.0845 60 60 60
1.5930 -0.2452 1.4745 60 60 60
1.5298 -3.5769 -0.0239 60 60 60
0.2934 0.4580 1.4873 60 60 60
3.6150 -4.6479 1.8286 60 60 60
6.6818 -3.6538 -0.0565 60 60 60
0.5194 0.3790 1.5136 60 60 60
0.7248 -10.3735 1.5799 60 60 60
-8.4557 -4.9875 0.0072 60 60 60
-0.2412 -2.9393 0.0131 60 60 60
1.5488 -0.2158 1.4845 60 60 60
7.6001 9.3850 0.2159 60 60 60
15.5547 -8.8615 0.3411 60 60 60
5.9749 9.0686 1.3958 60 60 60
2.4846 4.5407 -0.0937 60 60 60
0.9858 -0.0000 1.8402 60 60 60
11.6853 -18.4938 0.2905 60 60 60
4.0957 5.5518 -0.1248 60 60 60
0.9858 -0.0000 1.8402 60 60 60
14.6922 9.9808 0.0452 60 60 60
5.7474 1.8834 0.0033 60 60 60
0.9858 -0.0000 1.8402 60 60 60
0.7284 9.4608 1.6603 60 60 60
-30.0302 -18.0429 0.7144 60 60 60
-2.9113 -0.9018 1.0780 60 60 60
-2.1705 1.9241 2.3389 60 60 60
0.3790 -0.4805 1.4841 60 60 60
4.5994 1.5685 0.0000 60 60 60
-1.8505 1.8655 1.2602 60 60 60
8.0606 7.6536 2.5069 60 60 60
-1.5529 3.7999 2.2897 60 60 60
-4.2633 -3.1160 0.0337 60 60 60
22.2727 -20.0165 1.4740 60 60 60
4.2400 8.7887 2.8115 60 60 60
0.1171 1.9600 2.1889 60 60 60
1.6406 -0.0764 1.4701 60 60 60
0.9858 -0.0000 1.8402 60 60 60
0.3955 8.1381 2.6543 60 60 60
-3.9010 -3.5854 0.0283 60 60 60
-0.0243 -3.6270 -0.0078 60 60 60
-1.5851 -4.2818 1.7133 60 60 60
-4.6589 1.6417 1.9697 60 60 60
3.6997 8.6890 2.8050 60 60 60
-2.7401 -1.3256 0.8861 60 60 60
6.1626 -2.0495 -0.0258 60 60 60
4.3600 8.9442 1.9330 60 60 60
0.9858 -0.0000 1.8402 60 60 60
-0.1575 2.0697 1.6789 60 60 60
3.4565 -9.8005 3.3551 60 60 60
-18.0383 -13.0218 7.0628 60 60 60
-0.2011 2.0563 1.6245 60 60 60
4.5432 -5.0927 2.3854 60 60 60
0.9221 -4.4051 -0.0144 60 60 60
1.5704 0.0082 1.5296 60 60 60
8.7600 -5.7966 0.0901 60 60 60
0.9858 -0.0000 1.8402 60 60 60
1.7119 0.1637 1.4465 60 60 60
0.9858 -0.0000 1.8402 60 60 60
0.2781 0.1089 1.5211 60 60 60
0.9858 -0.0000 1.8402 60 60 60
5.8266 9.0608 0.1938 60 60 60
2.0059 -4.0981 0.3450 60 60 60
0.9858 -0.0000 1.8402 60 60 60
3.0749 -4.3202 1.7305 60 60 60
0.4727 2.1085 0.8483 60 60 60
2.6349 -4.0404 1.8531 60 60 60
5.9193 -1.0932 0.0055 60 60 60
12.4452 -10.1961 0.2020 60 60 60
0.9858 -0.0000 1.8402 60 60 60
-1.5566 3.8049 1.2197 60 60 60
-1.4300 3.0320 2.5091 60 60 60
5.5950 6.4668 -0.0530 60 60 60
0.9858 -0.0000 1.8402 60 60 60
1.5243 -0.1022 1.4982 60 60 60
-2.9712 -2.7243 0.0350 60 60 60
0.9858 -0.0000 1.8402 60 60 60
0.9858 -0.0000 1.8402 60 60 60
-4.7611 -4.6492 0.1710 60 60 60
4.1927 -3.4294 -0.0517 60 60 60
6.0611 3.6340 -0.0363 60 60 60
0.8992 -6.0106 0.2497 60 60 60
3.8969 -9.7902 1.9134 60 60 60
17.9666 -10.5835 1.4876 60 60 60
0.5296 0.0516 1.6227 60 60 60
22.2535 -19.7090 4.1792 60 60 60
-4.8163 -9.4956 0.7824 60 60 60
0.8425 2.1684 0.8262 60 60 60
6.4128 6.6493 -0.0188 60 60 60
-0.8602 -4.1815 0.3749 60 60 60
4.3534 -4.8836 0.5442 60 60 60
3.4299 9.0409 2.1913 60 60 60
1.8229 0.4185 1.3776 60 60 60
-0.9315 -4.2203 0.4754 60 60 60
-10.5590 -11.9583 4.6881 60 60 60
-1.4850 3.6885 2.6994 60 60 60
0.3356 2.2363 1.7683 60 60 60
2.3183 8.6663 2.8305 60 60 60
3.2780 3.2983 -0.0663 60 60 60
-7.4328 -7.4948 0.0932 60 60 60
2.3744 3.9401 -0.0853 60 60 60
0.9858 -0.0000 1.8402 60 60 60
1.6302 0.1417 1.4712 60 60 60
3.4686 -4.0815 -0.0455 60 60 60
-5.1618 1.5256 0.7930 60 60 60
-4.0463 1.6072 0.3160 60 60 60
4.3210 -5.2865 0.4845 60 60 60
2.0341 5.2127 -0.1347 60 60 60
1.5727 0.0396 1.5279 60 60 60
0.9858 -0.0000 1.8402 60 60 60
7.7538 -4.3376 -0.0152 60 60 60
-1.4382 2.9420 1.2461 60 60 60
0.9930 -3.0896 -0.0077 60 60 60
1.8992 -4.2702 0.5268 60 60 60
-1.0358 -3.5495 0.0052 60 60 60
1.5164 0.1014 1.4861 60 60 60
3.3228 -9.8983 2.1768 60 60 60
0.4220 2.1195 1.1343 60 60 60
6.1635 9.0900 0.8943 60 60 60
2.6950 -3.5875 -0.0396 60 60 60
3.5503 -9.8443 2.1666 60 60 60
-5.7748 -4.6815 0.0028 60 60 60
0.6725 9.4531 1.6630 60 60 60
4.8355 1.6400 0.0029 60 60 60
-2.3433 -4.3600 0.0001 60 60 60
4.1857 -8.5257 -0.0576 60 60 60
1.4312 0.4508 1.4778 60 60 60
21.8994 -19.0147 0.8153 60 60 60
2.7359 9.7270 0.3968 60 60 60
-2.6652 1.9001 2.6971 60 60 60
13.0824 -8.6805 0.2084 60 60 60
2.5150 8.6841 2.6186 60 60 60
-1.0681 -4.1596 -0.0033 60 60 60
1.7704 3.9080 -0.0792 60 60 60
1.2416 -3.4299 -0.0196 60 60 60
0.2041 0.0538 1.5547 60 60 60
22.1654 -16.2418 5.1767 60 60 60
1.1618 3.8269 -0.0817 60 60 60
1.5775 0.0048 1.5259 60 60 60
3.4660 8.8861 3.4892 60 60 60
-6.8792 -11.4835 3.4729 60 60 60
-7.7132 -3.7342 0.2330 60 60 60
0.1524 0.1729 1.5071 60 60 60
-13.2906 -12.5161 3.3515 60 60 60
3.7114 -9.8711 1.2059 60 60 60
0.9858 -0.0000 1.8402 60 60 60
0.9858 -0.0000 1.8402 60 60 60
6.2896 9.2599 3.6280 60 60 60
0.3986 2.6928 0.3356 60 60 60
0.4523 8.1688 2.8483 60 60 60
0.7426 2.1408 1.0181 60 60 60
1.5964 -0.0315 1.5333 60 60 60
2.5412 4.1585 -0.0868 60 60 60
0.8166 2.1393 0.7791 60 60 60
1.5070 0.0390 1.5141 60 60 60
0.9858 -0.0000 1.8402 60 60 60
0.9858 -0.0000 1.8402 60 60 60
0.9858 -0.0000 1.8402 60 60 60
-2.2410 -3.0449 0.0292 60 60 60
1.6180 0.3803 1.4557 60 60 60
-3.5356 1.8093 2.8624 60 60 60
-1.3088 -4.2697 1.9336 60 60 60
0.7014 2.1077 0.6690 60 60 60
0.9858 -0.0000 1.8402 60 60 60
7.3288 9.3429 0.2506 60 60 60
-0.1507 8.0735 1.3465 60 60 60
-1.4713 3.3734 1.7693 60 60 60
0.1945 2.1110 1.5134 60 60 60
1.6083 0.0642 1.5266 60 60 60
-17.0867 -4.4903 1.7946 60 60 60
-1.0170 -4.2342 1.8113 60 60 60
-0.7915 -4.2596 -0.0087 60 60 60
0.9858 -0.0000 1.8402 60 60 60
-11.5136 -4.2798 0.5564 60 60 60
-3.1517 0.1741 1.0595 60 60 60
7.5853 -5.8210 0.0602 60 60 60
1.3356 3.7839 -0.0764 60 60 60
0.3006 -0.0001 1.5350 60 60 60
6.8975 4.9895 -0.0773 60 60 60
1.7871 5.8439 -0.1771 60 60 60
0.4094 -0.3810 1.5048 60 60 60
20.4622 14.7958 0.9832 60 60 60
0.4983 0.3523 1.5145 60 60 60
0.9858 -0.0000 1.8402 60 60 60
2.1601 3.2592 -0.0617 60 60 60
-1.0425 2.5374 0.7707 60 60 60
-13.2565 2.0127 -0.1872 60 60 60
-0.8939 8.1755 3.1341 60 60 60
-0.2254 8.0850 1.7304 60 60 60
3.2444 -4.3373 0.5557 60 60 60
-1.4504 3.3111 2.3480 60 60 60
-12.0262 -4.7309 4.0585 60 60 60
1.7223 0.1569 1.4417 60 60 60
-1.2691 2.0274 1.7387 60 60 60
5.5696 9.1409 1.8931 60 60 60
0.9858 -0.0000 1.8402 60 60 60
-3.1509 1.8556 2.7889 60 60 60
-1.7930 1.9337 1.9746 60 60 60
1.4632 -0.3045 1.5089 60 60 60
0.3864 -0.3265 1.5107 60 60 60
0.2005 2.0905 1.7266 60 60 60
-2.0269 1.8466 0.8943 60 60 60
2.7337 -0.2899 1.0022 60 60 60
2.1709 -3.1476 -0.0335 60 60 60
5.9991 5.1159 -0.0886 60 60 60
1.4645 0.5620 1.4651 60 60 60
1.5203 0.0433 1.5057 60 60 60
-3.9984 -2.6560 0.0325 60 60 60
0.9858 -0.0000 1.8402 60 60 60
0.2844 -0.0519 1.5266 60 60 60
0.9858 -0.0000 1.8402 60 60 60
9.7214 -6.7515 0.1183 60 60 60
0.3885 3.2467 -0.0701 60 60 60
-8.1987 -18.5651 5.6268 60 60 60
-12.2299 -7.0734 0.6851 60 60 60
-1.3127 2.0711 2.2429 60 60 60
15.5978 -41.5708 6.1875 60 60 60
-9.5646 -11.9136 2.2927 60 60 60
0.8719 2.5843 1.3657 60 60 60
-1.4417 2.6029 2.2940 60 60 60
22.8029 -18.0362 1.4342 60 60 60
0.1688 -0.2949 1.4968 60 60 60
1.5312 -0.0049 1.5170 60 60 60
0.5013 0.3994 1.5176 60 60 60
5.2646 -3.9649 -0.0629 60 60 60
-1.1432 3.4291 1.6668 60 60 60
0.8098 -10.3283 2.2995 60 60 60
0.0854 2.0599 0.7696 60 60 60
3.1396 9.8633 1.7701 60 60 60
-0.6817 8.0683 2.1330 60 60 60
1.2976 4.0641 -0.0945 60 60 60
-2.1061 1.8756 1.4826 60 60 60
1.3759 0.4832 1.4880 60 60 60
-5.4863 0.8240 -0.0331 60 60 60
3.7632 8.8237 1.3060 60 60 60
-10.0052 -8.5912 0.0402 60 60 60
0.9858 -0.0000 1.8402 60 60 60
3.0360 -4.2900 1.9542 60 60 60
7.3484 -13.2438 0.1304 60 60 60
0.1683 2.3209 2.1152 60 60 60
-1.4032 2.6657 1.2019 60 60 60
-0.6969 -4.1870 1.0566 60 60 60
3.3135 3.6020 -0.0679 60 60 60
1.5363 0.0545 1.4952 60 60 60
-10.6934 -4.9629 4.7801 60 60 60
-0.1879 -10.4116 3.3378 60 60 60
2.1991 -7.1690 0.7379 60 60 60
0.9858 -0.0000 1.8402 60 60 60
5.2907 0.8791 0.0145 60 60 60
0.9858 -0.0000 1.8402 60 60 60
-11.2671 -5.0305 4.2682 60 60 60
1.5047 -0.1441 1.4869 60 60 60
-4.1832 -0.1854 1.5973 60 60 60
12.7065 7.6467 0.0082 60 60 60
-1.4274 2.6130 2.2094 60 60 60
-0.0829 2.0482 1.0007 60 60 60
3.3976 9.4956 0.6107 60 60 60
-2.8825 -0.7560 1.0909 60 60 60
11.4232 10.0008 0.0324 60 60 60
-1.4542 3.2295 2.2468 60 60 60
5.0841 9.0664 1.9089 60 60 60
1.3262 -0.4300 1.4912 60 60 60
3.4703 9.0973 -0.0295 60 60 60
0.5658 2.1227 0.9654 60 60 60
0.9858 -0.0000 1.8402 60 60 60
0.9858 -0.0000 1.8402 60 60 60
-6.7252 -4.1208 0.7548 60 60 60
0.3921 0.4583 1.4989 60 60 60
4.1407 -9.4030 0.0297 60 60 60
2.3998 -7.1245 0.5563 60 60 60
0.9858 -0.0000 1.8402 60 60 60
0.9835 8.4512 3.0550 60 60 60
0.9858 -0.0000 1.8402 60 60 60
2.9499 6.4475 -0.1723 60 60 60
3.9598 -9.7708 2.1497 60 60 60
0.9858 -0.0000 1.8402 60 60 60
1.6787 0.2592 1.4508 60 60 60
0.9858 -0.0000 1.8402 60 60 60
6.1953 9.0764 0.3998 60 60 60
-3.7346 -2.2778 0.0331 60 60 60
0.9858 -0.0000 1.8402 60 60 60
3.4763 8.8825 0.8892 60 60 60
5.9751 5.1508 -0.0892 60 60 60
-0.5043 2.0479 0.6603 60 60 60
0.9858 -0.0000 1.8402 60 60 60
0.4515 2.1323 1.2427 60 60 60
-1.5686 1.9857 2.5002 60 60 60
0.9858 -0.0000 1.8402 60 60 60
3.3890 2.8554 -0.0553 60 60 60
8.0431 9.4133 2.9155 60 60 60
-2.3253 -3.3896 0.0255 60 60 60
0.9858 -0.0000 1.8402 60 60 60
1.6940 -4.0664 0.9148 60 60 60
-3.4783 -4.5316 1.7365 60 60 60
1.2552 -0.5015 1.4831 60 60 60
0.3408 0.1754 1.5228 60 60 60
-4.4193 -2.8822 0.0352 60 60 60
5.6020 -0.7956 0.0129 60 60 60
-1.4026 1.9632 1.8847 60 60 60
1.0296 -0.4327 1.5775 60 60 60
2.7461 9.8189 2.2538 60 60 60
1.7025 -0.1992 1.4458 60 60 60
0.4183 -4.1958 1.8539 60 60 60
0.5392 2.1454 1.2403 60 60 60
0.9858 -0.0000 1.8402 60 60 60
-0.2013 2.0735 1.5099 60 60 60
-6.1375 1.4534 -0.0671 60 60 60
-17.9594 -13.2121 3.2149 60 60 60
-0.0288 2.0221 0.7032 60 60 60
-6.0223 -4.3396 0.2122 60 60 60
22.1457 -20.3539 2.1691 60 60 60
-5.4244 1.5958 2.4509 60 60 60
0.0640 -0.2519 1.4893 60 60 60
-0.4738 3.6092 1.9185 60 60 60
5.3702 1.9201 -0.0003 60 60 60
1.3804 0.4771 1.4887 60 60 60
5.2340 1.2131 0.0099 60 60 60
14.7105 -11.1053 0.3454 60 60 60
0.9858 -0.0000 1.8402 60 60 60
0.3210 -5.3080 0.4541 60 60 60
0.9858 -0.0000 1.8402 60 60 60
1.9290 -4.0206 0.1612 60 60 60
1.5563 8.5060 -0.1830 60 60 60
-3.3807 -3.4371 0.0310 60 60 60
0.9858 -0.0000 1.8402 60 60 60
3.3517 2.8784 -0.0501 60 60 60
2.5955 9.7863 1.7950 60 60 60
-1.3254 8.0269 1.9711 60 60 60
0.9858 -0.0000 1.8402 60 60 60
-2.4254 -0.7274 0.7441 60 60 60
7.6497 -4.4942 -0.0105 60 60 60
2.5616 4.5092 -0.0959 60 60 60
-5.4347 -3.6215 0.0321 60 60 60
0.0899 2.2434 2.3458 60 60 60
9.8481 -8.5575 0.5393 60 60 60
2.2396 -3.3207 -0.0299 60 60 60
4.2458 -5.0493 0.2385 60 60 60
-2.0542 1.8715 1.5708 60 60 60
0.9858 -0.0000 1.8402 60 60 60
2.4633 8.6826 2.6201 60 60 60
0.9858 -0.0000 1.8402 60 60 60
6.5859 3.9016 -0.0414 60 60 60
-2.3608 -10.8843 3.2973 60 60 60
1.5686 -0.0125 1.5305 60 60 60
-1.1389 -3.4936 0.0093 60 60 60
2.5910 -10.1390 0.5340 60 60 60
-0.7979 4.0550 1.8319 60 60 60
-1.4594 3.1632 0.9228 60 60 60
-1.4540 3.1240 1.8703 60 60 60
-3.8662 -4.4499 0.0141 60 60 60
5.2248 1.2652 0.0085 60 60 60
0.4275 -4.8026 0.2173 60 60 60
2.8553 8.8949 -0.1566 60 60 60
1.4799 -0.3666 1.5190 60 60 60
5.7362 3.1615 -0.0269 60 60 60
3.7544 8.8545 1.9542 60 60 60
-1.2730 2.2345 0.6411 60 60 60
1.5523 9.5973 1.8428 60 60 60
-3.2503 -4.4652 0.2701 60 60 60
0.9858 -0.0000 1.8402 60 60 60
4.9656 -4.9746 2.8362 60 60 60
-2.5655 -10.9577 4.1492 60 60 60
-2.8090 -1.4249 0.9599 60 60 60
-6.8408 -18.5192 2.6143 60 60 60
-0.0738 0.2524 1.4712 60 60 60
0.0728 0.1047 1.5054 60 60 60
1.8312 -4.1039 0.3652 60 60 60
-6.2904 -3.8890 0.0235 60 60 60
5.4885 4.7127 -0.0765 60 60 60
0.9858 -0.0000 1.8402 60 60 60
-0.0737 0.3238 1.4642 60 60 60
9.4033 9.7422 1.4799 60 60 60
0.6272 2.1501 1.4528 60 60 60
0.6184 9.4453 1.6657 60 60 60
-0.0299 2.0519 1.1830 60 60 60
4.4937 5.9957 -0.1351 60 60 60
-3.7898 -1.6034 1.2329 60 60 60
-8.6599 -11.6495 4.7513 60 60 60
-10.6053 -10.3319 0.5365 60 60 60
0.0705 -0.2170 1.4953 60 60 60
0.9858 -0.0000 1.8402 60 60 60
23.0978 -16.5985 2.6987 60 60 60
5.5665 -5.8546 1.2629 60 60 60
-3.3226 -0.1141 1.1301 60 60 60
4.6066 2.2205 -0.0074 60 60 60
2.7069 -0.4453 1.0007 60 60 60
0.9858 -0.0000 1.8402 60 60 60
1.5716 -0.3130 1.4708 60 60 60
1.4428 0.3112 1.5022 60 60 60
-1.5746 3.9798 1.1954 60 60 60
