ply
format ascii 1.0
element vertex 1529
property float x
property float y
property float z
property uchar red
property uchar green
property uchar blue
end_header
4.0604 -14.1308 3.0081 60 60 60
5.8627 0.4591 0.0215 60 60 60
0.9187 -11.2079 3.1211 60 60 60
2.2502 3.4326 0.0118 60 60 60
-13.2454 11.6215 -0.0417 60 60 60
5.0707 -10.6540 3.7702 60 60 60
0.2386 -0.1319 1.5176 60 60 60
1.4171 -0.1652 1.4913 60 60 60
-7.1588 -0.3702 1.0763 60 60 60
0.9590 0.0003 1.8396 60 60 60
0.9596 0.0003 1.8396 60 60 60
0.4104 -0.4514 1.5000 60 60 60
2.7085 3.6915 0.0194 60 60 60
-13.6369 5.3426 -0.0121 60 60 60
-10.5777 4.4152 1.8083 60 60 60
-0.6286 -11.3801 2.4163 60 60 60
5.9993 5.6479 -0.0213 60 60 60
-0.6783 10.0853 2.9023 60 60 60
-8.6690 -17.1652 0.4008 60 60 60
-1.4148 -11.3097 0.8384 60 60 60
1.4085 9.4060 2.4914 60 60 60
6.9573 3.9067 0.0136 60 60 60
0.9224 0.0008 1.8388 60 60 60
7.5155 -10.3840 2.9454 60 60 60
2.3649 9.0896 1.7876 60 60 60
1.1220 -0.5252 1.4849 60 60 60
5.3590 4.1193 0.0279 60 60 60
-8.6428 -2.0826 -0.0300 60 60 60
1.8578 3.8761 0.0070 60 60 60
1.1261 0.5288 1.4884 60 60 60
0.9522 0.0005 1.8395 60 60 60
0.1774 -0.0856 1.5149 60 60 60
0.2394 -0.0102 1.5423 60 60 60
0.2549 0.1717 1.5175 60 60 60
-1.8543 3.8397 0.0115 60 60 60
0.7468 3.1033 0.0190 60 60 60
6.1184 7.8953 2.7213 60 60 60
9.2493 9.3923 0.5899 60 60 60
1.8902 -0.2178 1.3220 60 60 60
0.2564 -0.2758 1.5062 60 60 60
-1.2700 9.7599 0.0883 60 60 60
0.9181 0.0009 1.8387 60 60 60
-5.4331 -4.4289 2.6651 60 60 60
-5.9686 -1.4588 -0.0254 60 60 60
-2.0436 -9.2884 0.1153 60 60 60
-2.4055 3.9455 0.0016 60 60 60
-9.2635 -11.9682 4.8744 60 60 60
5.8933 7.8701 2.4947 60 60 60
0.0852 3.0746 0.0062 60 60 60
4.1722 2.1296 0.0190 60 60 60
0.9086 0.0010 1.8384 60 60 60
-8.8813 -11.9324 4.8115 60 60 60
-1.6938 10.4140 2.7479 60 60 60
-1.7061 5.2719 -0.0062 60 60 60
0.9151 0.0009 1.8386 60 60 60
2.4545 -3.0156 -0.0698 60 60 60
0.9417 0.0005 1.8392 60 60 60
1.3942 -0.1547 1.4893 60 60 60
-18.5119 -10.9711 2.1858 60 60 60
3.3772 -10.9856 3.2784 60 60 60
11.3853 8.4955 0.4243 60 60 60
0.8913 0.0012 1.8380 60 60 60
-5.1887 -4.4719 2.6414 60 60 60
-1.9888 -6.6920 -0.1310 60 60 60
2.2083 9.1616 3.5401 60 60 60
-2.4726 -11.3819 3.0753 60 60 60
-7.1288 -0.9306 1.0713 60 60 60
9.1491 9.3922 2.0623 60 60 60
0.2358 0.3055 1.5090 60 60 60
0.1327 0.4678 1.4623 60 60 60
0.1986 -0.2241 1.5115 60 60 60
8.1365 8.9096 2.5954 60 60 60
0.7779 -3.6139 -0.0914 60 60 60
1.2753 0.4604 1.4846 60 60 60
-6.5222 -0.1812 0.7843 60 60 60
1.3618 0.2303 1.5025 60 60 60
0.5898 0.4864 1.4984 60 60 60
-8.6257 12.6683 2.3200 60 60 60
1.2814 -0.5183 1.4706 60 60 60
-2.5201 -3.3741 1.8766 60 60 60
-5.6640 9.8014 -0.0466 60 60 60
0.3401 9.6117 0.5443 60 60 60
0.9539 0.0005 1.8395 60 60 60
-0.6161 10.3547 3.6708 60 60 60
3.6673 -4.2997 0.6055 60 60 60
4.0168 8.5667 3.2096 60 60 60
-7.2494 3.1855 -0.0559 60 60 60
0.9270 0.0008 1.8389 60 60 60
-27.0595 -19.7583 7.9227 60 60 60
0.9617 0.0003 1.8397 60 60 60
2.6110 -0.4613 0.9950 60 60 60
-3.7954 -3.2223 0.5610 60 60 60
-0.4149 10.0688 1.2235 60 60 60
9.8648 -28.8494 4.8832 60 60 60
1.2023 6.4734 -0.0260 60 60 60
-0.6285 4.6968 0.0005 60 60 60
-0.5923 3.2813 0.0084 60 60 60
-8.3622 5.1358 0.0376 60 60 60
-11.4242 -12.1743 5.2438 60 60 60
-3.1670 -4.9279 -0.1348 60 60 60
0.8710 0.0014 1.8375 60 60 60
0.8198 4.1419 0.0036 60 60 60
-4.2064 -11.4845 4.4245 60 60 60
-73.3451 33.0214 3.4723 60 60 60
1.2991 0.3517 1.4974 60 60 60
1.3747 -0.2490 1.5002 60 60 60
-3.8614 -4.5637 1.4306 60 60 60
5.4484 2.1824 0.0261 60 60 60
0.9590 0.0004 1.8396 60 60 60
9.4797 8.3434 2.8604 60 60 60
4.3766 -4.0063 -0.1475 60 60 60
2.2010 9.1319 0.7156 60 60 60
-4.1061 -11.5196 0.8671 60 60 60
-3.9449 -15.7293 1.2527 60 60 60
-76.6355 18.3710 1.7516 60 60 60
1.6053 9.3384 3.1404 60 60 60
4.5272 -5.9262 0.3392 60 60 60
4.3127 6.4423 -0.0497 60 60 60
1.3960 -0.2059 1.4790 60 60 60
2.7134 -4.0494 -0.1271 60 60 60
15.1093 -15.8367 0.1499 60 60 60
2.3895 -3.0620 -0.0725 60 60 60
-9.5157 -12.0672 3.4071 60 60 60
-0.7905 -8.9621 0.3946 60 60 60
2.7579 -3.0507 -0.0748 60 60 60
0.5696 9.4346 1.4467 60 60 60
-3.3534 -11.4582 4.0214 60 60 60
1.3292 -0.4560 1.4759 60 60 60
0.8902 0.0012 1.8380 60 60 60
0.5647 9.4540 2.3296 60 60 60
-1.7601 4.3147 0.0023 60 60 60
-5.1543 14.2433 3.6165 60 60 60
0.9446 -4.7223 -0.1528 60 60 60
4.2660 -3.4944 -0.1175 60 60 60
3.4421 8.7269 1.0999 60 60 60
-1.7131 -6.7916 -0.1412 60 60 60
-19.4724 -6.5532 -0.2397 60 60 60
1.9561 3.5806 0.0092 60 60 60
5.0519 1.3164 0.0250 60 60 60
0.9420 0.0005 1.8393 60 60 60
2.7195 -3.3705 -0.0902 60 60 60
9.6885 -28.8654 4.8871 60 60 60
3.4794 -8.1705 0.4911 60 60 60
7.5748 -4.3046 0.0082 60 60 60
0.8894 0.0012 1.8379 60 60 60
-11.2576 13.4377 5.8935 60 60 60
0.3018 -0.1772 1.5215 60 60 60
11.6129 6.8854 0.1628 60 60 60
1.1894 -11.1836 1.5369 60 60 60
0.8461 0.0016 1.8368 60 60 60
5.5181 -2.8373 -0.1004 60 60 60
1.9601 9.1884 2.0213 60 60 60
0.9463 0.0005 1.8393 60 60 60
-6.8600 -4.3803 -0.1360 60 60 60
0.0548 9.7325 2.5967 60 60 60
25.0959 -23.8062 7.0317 60 60 60
-2.1051 -3.0866 -0.0536 60 60 60
1.3332 -3.5352 -0.0943 60 60 60
-5.3084 -4.3882 2.2923 60 60 60
-0.6736 3.2574 0.0054 60 60 60
1.4091 -0.1559 1.4976 60 60 60
-7.0959 -3.6992 -0.0968 60 60 60
-6.6867 -0.6575 0.9372 60 60 60
0.9574 0.0004 1.8396 60 60 60
5.5355 4.9722 0.0031 60 60 60
0.9195 0.0008 1.8387 60 60 60
-8.7568 -11.9924 2.9732 60 60 60
-4.4555 11.6226 4.2433 60 60 60
2.1048 9.1933 3.5482 60 60 60
-5.7927 3.9577 -0.0602 60 60 60
-10.1344 13.1451 1.9910 60 60 60
1.4881 -0.0712 1.4760 60 60 60
-5.0045 -2.9455 0.3829 60 60 60
-1.9680 8.2110 -0.0603 60 60 60
1.1962 9.3214 0.0825 60 60 60
3.8615 5.8636 -0.0233 60 60 60
0.8989 0.0011 1.8382 60 60 60
6.1509 7.8892 2.2761 60 60 60
-5.8369 -2.9395 1.7988 60 60 60
-0.9673 8.3390 -0.0703 60 60 60
-6.2600 7.9150 -0.0696 60 60 60
1.2277 0.4293 1.4986 60 60 60
1.8625 -8.0677 -0.1569 60 60 60
1.9735 9.2218 3.1120 60 60 60
0.2308 5.1764 -0.0093 60 60 60
0.9710 0.0002 1.8399 60 60 60
-6.3631 2.4105 -0.0024 60 60 60
1.5585 0.0082 1.5355 60 60 60
5.4058 5.1889 -0.0076 60 60 60
1.1466 -0.5092 1.4858 60 60 60
2.8740 -6.1950 -0.1430 60 60 60
3.4041 -11.5020 0.5937 60 60 60
0.0052 9.8032 2.8353 60 60 60
3.1254 -11.0124 3.5526 60 60 60
-11.4919 -12.2029 4.0098 60 60 60
-3.2411 -5.7211 -0.1799 60 60 60
7.3076 -6.6924 -0.0069 60 60 60
4.5190 8.3728 1.4751 60 60 60
0.3628 0.4506 1.4978 60 60 60
1.4191 0.1100 1.4921 60 60 60
0.8737 0.0014 1.8375 60 60 60
4.4191 8.4198 2.3316 60 60 60
-0.9228 -5.4463 -0.1773 60 60 60
-1.2478 -11.2956 1.6414 60 60 60
-2.0050 -3.4705 1.0027 60 60 60
0.7926 -4.5560 0.8621 60 60 60
2.1408 -8.0149 -0.1668 60 60 60
0.8429 9.4503 0.3046 60 60 60
-3.9245 -4.6698 0.7858 60 60 60
1.4036 -0.4963 1.5118 60 60 60
1.5690 -0.0568 1.5112 60 60 60
-24.4029 -8.1385 0.5058 60 60 60
-4.2683 -1.9369 -0.0657 60 60 60
0.9395 0.0006 1.8392 60 60 60
0.2664 -5.4457 -0.1424 60 60 60
0.1675 0.4129 1.4858 60 60 60
10.3667 -8.4857 -0.4178 60 60 60
-1.8094 10.4428 1.9998 60 60 60
1.7257 -8.1214 -0.1595 60 60 60
0.9303 0.0007 1.8390 60 60 60
1.0865 9.4942 1.6263 60 60 60
-6.4876 0.0313 0.6134 60 60 60
0.9251 0.0008 1.8389 60 60 60
0.9487 0.0005 1.8394 60 60 60
5.7354 -2.1686 -0.0731 60 60 60
-2.3363 3.5158 0.0117 60 60 60
13.3544 8.6317 1.9918 60 60 60
7.7759 -10.3653 0.6234 60 60 60
1.7708 3.6497 0.0118 60 60 60
0.8688 0.0014 1.8374 60 60 60
7.0206 -10.5172 0.3910 60 60 60
0.4817 -3.8608 -0.1026 60 60 60
-9.4404 -12.0050 4.1480 60 60 60
3.0655 8.8419 0.6885 60 60 60
-0.1149 -0.1487 1.4757 60 60 60
4.5119 -3.8342 -0.1418 60 60 60
1.5155 0.3682 1.4487 60 60 60
-5.7332 11.7138 2.4981 60 60 60
4.1390 8.4995 1.9170 60 60 60
1.3886 4.9806 -0.0039 60 60 60
2.7525 -3.6763 -0.1102 60 60 60
0.8761 0.0013 1.8376 60 60 60
0.1018 -0.1775 1.5006 60 60 60
0.9428 0.0005 1.8393 60 60 60
-4.5830 -2.3855 -0.0748 60 60 60
3.7619 -4.1047 -0.1470 60 60 60
0.9024 0.0011 1.8383 60 60 60
1.2524 0.4797 1.4856 60 60 60
0.9517 0.0004 1.8395 60 60 60
1.8001 -0.4207 1.3382 60 60 60
4.1493 -4.7067 -0.1264 60 60 60
1.2930 -3.5444 -0.0944 60 60 60
-6.2084 12.1234 3.1957 60 60 60
-0.2923 -4.4668 -0.0456 60 60 60
-4.8687 -3.8104 0.9600 60 60 60
0.9460 0.0005 1.8393 60 60 60
8.8563 -10.2635 2.9624 60 60 60
-0.8898 -5.4509 -0.1767 60 60 60
-7.1303 -0.4617 1.0781 60 60 60
0.8007 -4.5956 1.2944 60 60 60
1.4048 0.0143 1.4918 60 60 60
0.9444 0.0005 1.8393 60 60 60
0.4556 -4.1297 -0.1184 60 60 60
14.1814 -9.3385 0.8260 60 60 60
10.9096 8.4775 2.6200 60 60 60
2.5430 -4.5556 -0.1550 60 60 60
-21.9564 10.2672 0.0030 60 60 60
1.7925 9.1626 2.8917 60 60 60
0.8579 -11.2394 1.2873 60 60 60
-18.9784 15.8535 1.6180 60 60 60
1.3423 -0.3858 1.4951 60 60 60
0.9552 0.0004 1.8395 60 60 60
-0.0418 -6.8468 -0.1179 60 60 60
5.7297 -10.4265 0.2433 60 60 60
0.2078 5.6156 -0.0192 60 60 60
-2.6999 9.7962 0.0719 60 60 60
0.9186 0.0009 1.8387 60 60 60
-5.7767 6.7988 -0.0836 60 60 60
0.9420 0.0005 1.8393 60 60 60
-0.5631 9.7370 0.0843 60 60 60
-4.6126 11.3938 3.9232 60 60 60
0.9083 0.0010 1.8384 60 60 60
0.9430 0.0005 1.8393 60 60 60
5.9852 -7.7944 0.2700 60 60 60
1.3691 -0.4974 1.4639 60 60 60
7.7716 7.7916 0.0659 60 60 60
5.0706 8.1815 0.3636 60 60 60
3.4771 8.7451 3.4545 60 60 60
-9.7397 13.3129 4.3817 60 60 60
-4.6420 -11.5281 4.1763 60 60 60
0.9506 0.0004 1.8394 60 60 60
1.5925 -11.1366 2.0378 60 60 60
-8.5547 6.5808 0.6777 60 60 60
0.9170 0.0009 1.8387 60 60 60
0.8710 0.0014 1.8375 60 60 60
-1.2099 -6.3277 -0.1583 60 60 60
1.2554 0.4774 1.4855 60 60 60
1.5609 -0.0200 1.5347 60 60 60
1.8916 6.2683 -0.0237 60 60 60
-7.6343 1.7266 -0.0306 60 60 60
4.9443 1.6911 0.0211 60 60 60
0.9503 0.0005 1.8394 60 60 60
0.0602 0.3332 1.4884 60 60 60
4.5757 -5.9730 1.3264 60 60 60
25.0746 -24.1223 4.6513 60 60 60
5.8360 -3.3165 -0.1275 60 60 60
-4.1929 -4.9024 -0.1336 60 60 60
8.5622 6.9570 0.0324 60 60 60
-4.2343 -4.2723 1.1258 60 60 60
0.8988 0.0012 1.8382 60 60 60
1.3912 -0.5326 1.4638 60 60 60
-7.1170 -0.8358 1.0741 60 60 60
4.5772 4.3138 0.0280 60 60 60
1.1583 -4.4656 0.1826 60 60 60
-3.5697 11.0203 2.6397 60 60 60
0.9536 0.0005 1.8395 60 60 60
-43.8863 24.1177 2.7948 60 60 60
1.4705 0.0760 1.4834 60 60 60
1.1610 -11.1757 2.5807 60 60 60
0.8777 0.0013 1.8376 60 60 60
0.8967 -3.1913 -0.0674 60 60 60
1.4359 3.5458 0.0068 60 60 60
1.5349 0.3330 1.4478 60 60 60
-4.2832 -7.9253 -0.1809 60 60 60
0.4892 -0.4835 1.4952 60 60 60
-4.2374 11.2366 2.1138 60 60 60
0.4503 -4.7664 -0.1540 60 60 60
-1.9157 -3.4082 0.1242 60 60 60
5.2212 1.7726 0.0286 60 60 60
-3.8118 -5.2664 -0.1523 60 60 60
-5.0505 11.3955 2.1517 60 60 60
0.6409 -4.6667 1.4025 60 60 60
0.9444 0.0005 1.8393 60 60 60
1.5997 -0.2268 1.4413 60 60 60
2.5593 -6.3328 -0.1405 60 60 60
0.8937 0.0011 1.8381 60 60 60
0.5913 6.6390 -0.0280 60 60 60
6.6364 -7.6559 0.6589 60 60 60
-0.8599 7.4432 -0.0552 60 60 60
-2.2807 -6.6165 -0.1317 60 60 60
0.9620 0.0003 1.8397 60 60 60
-6.1982 5.0744 -0.0937 60 60 60
9.2161 8.3228 3.6850 60 60 60
4.9739 -0.8902 -0.0200 60 60 60
-8.3756 -12.0658 2.5891 60 60 60
0.7682 5.5538 -0.0105 60 60 60
0.8638 -4.5466 0.6366 60 60 60
5.0477 -7.9756 0.3584 60 60 60
-5.0431 4.8457 -0.0625 60 60 60
-8.4783 0.1199 1.6157 60 60 60
-3.7906 11.1686 1.2441 60 60 60
-6.0695 0.8300 -0.0142 60 60 60
11.8426 8.5483 2.3251 60 60 60
10.5529 -6.3037 0.5680 60 60 60
5.4997 3.9101 0.0291 60 60 60
4.3739 -4.1441 -0.0394 60 60 60
10.2606 6.6688 0.0680 60 60 60
0.8496 0.0016 1.8369 60 60 60
-3.2980 -3.4494 0.6053 60 60 60
-4.8166 1.0814 0.0023 60 60 60
-0.0751 4.4369 0.0052 60 60 60
1.3842 -0.2649 1.4910 60 60 60
1.1302 5.0421 -0.0050 60 60 60
-10.1088 13.3139 4.8392 60 60 60
0.7947 -4.6464 1.9401 60 60 60
-10.3742 12.5298 0.0318 60 60 60
0.2551 0.1590 1.5192 60 60 60
-12.6317 2.2677 -0.1059 60 60 60
1.7383 -8.6013 0.1462 60 60 60
5.1789 -4.4794 -0.1673 60 60 60
-0.1403 7.4256 -0.0492 60 60 60
0.0484 0.2967 1.4896 60 60 60
-5.6488 6.9053 -0.0863 60 60 60
-14.1322 -6.2165 0.2337 60 60 60
-0.3236 -7.6179 -0.1447 60 60 60
0.3099 3.6802 0.0117 60 60 60
1.6633 9.2887 1.3848 60 60 60
-8.7966 -12.1582 2.2538 60 60 60
0.5050 4.7828 0.0027 60 60 60
8.0923 -10.3268 3.5428 60 60 60
0.9441 0.0006 1.8393 60 60 60
-9.2647 13.2516 3.1343 60 60 60
-1.3207 -11.2817 1.3753 60 60 60
3.1391 5.6372 -0.0091 60 60 60
0.8775 0.0013 1.8376 60 60 60
0.9512 0.0005 1.8394 60 60 60
0.8694 0.0014 1.8374 60 60 60
4.5209 -4.2588 0.1825 60 60 60
-2.2268 -2.9648 -0.0477 60 60 60
0.8961 0.0011 1.8381 60 60 60
-60.9522 22.4765 1.6880 60 60 60
0.1936 -0.1623 1.5163 60 60 60
2.5555 -11.0777 3.8433 60 60 60
1.3826 -0.4145 1.5239 60 60 60
-0.0778 9.8483 0.5263 60 60 60
2.0956 4.7020 0.0120 60 60 60
3.2012 8.8001 1.3234 60 60 60
3.0151 -3.1298 -0.0819 60 60 60
-7.2956 0.2408 1.0658 60 60 60
6.4394 -3.3537 -0.1441 60 60 60
0.9400 0.0006 1.8392 60 60 60
-5.5435 -11.6843 2.7295 60 60 60
-5.2742 -11.6163 1.7871 60 60 60
2.1635 -11.1304 3.5924 60 60 60
-5.2513 -4.4632 2.6475 60 60 60
-3.1898 -3.2376 0.3986 60 60 60
2.3499 -4.2636 -0.1356 60 60 60
0.1801 -0.0942 1.5155 60 60 60
-12.9476 -12.3001 5.0675 60 60 60
0.2921 -0.3549 1.5041 60 60 60
6.1144 1.4049 0.0212 60 60 60
-1.7013 -3.8028 -0.0902 60 60 60
-1.5201 -2.8834 -0.0421 60 60 60
-2.7743 6.1381 -0.0186 60 60 60
-2.2522 -3.3929 -0.0717 60 60 60
-18.2205 15.7716 4.5153 60 60 60
1.2155 0.4112 1.4940 60 60 60
-1.2869 -3.3539 -0.0661 60 60 60
2.3304 9.0875 0.2737 60 60 60
-4.2164 -7.9218 -0.1748 60 60 60
2.9442 -2.8812 -0.0660 60 60 60
24.7599 -24.8870 6.3221 60 60 60
0.3431 3.9164 0.0097 60 60 60
-2.3156 -3.3866 1.4325 60 60 60
7.2170 -4.4051 0.2596 60 60 60
-10.2242 -12.1387 3.0906 60 60 60
7.1835 -6.7974 0.0002 60 60 60
0.8959 0.0011 1.8381 60 60 60
1.4245 0.0275 1.5137 60 60 60
1.9353 -11.0843 2.8020 60 60 60
0.9539 0.0004 1.8395 60 60 60
0.4884 -0.0587 1.6197 60 60 60
2.3060 -4.2948 -0.1398 60 60 60
3.0131 8.8686 1.5453 60 60 60
-2.0677 -3.1195 -0.0546 60 60 60
0.4539 0.0124 1.5897 60 60 60
8.2020 7.3643 0.0473 60 60 60
0.2152 -0.3311 1.5008 60 60 60
2.9863 3.4959 0.0195 60 60 60
1.3362 0.2508 1.4938 60 60 60
0.4580 -0.3866 1.5025 60 60 60
2.9887 5.7412 -0.0136 60 60 60
6.5804 -10.4819 2.3841 60 60 60
2.0673 4.0638 0.0085 60 60 60
-5.4708 11.5333 2.1714 60 60 60
-6.2906 -11.7572 3.4309 60 60 60
-4.4881 -11.5275 3.8535 60 60 60
1.8768 0.1989 1.3270 60 60 60
-3.3255 -3.5959 0.5762 60 60 60
-3.2283 -6.3796 -0.1591 60 60 60
-5.7572 -2.4949 -0.0651 60 60 60
-3.6475 -11.4349 4.0493 60 60 60
-4.5008 -11.5447 1.4625 60 60 60
13.7086 8.7489 2.3535 60 60 60
1.6204 9.3335 2.4775 60 60 60
3.3771 8.7777 3.4599 60 60 60
5.3896 1.2169 0.0255 60 60 60
-3.1712 2.6908 0.0080 60 60 60
4.3595 -10.8393 3.5184 60 60 60
0.7644 3.6814 0.0125 60 60 60
0.9516 -4.6349 1.8249 60 60 60
-1.0516 -3.8006 -0.0933 60 60 60
1.4246 -0.0930 1.4767 60 60 60
-14.8596 3.4209 -0.0656 60 60 60
0.3294 0.1012 1.5396 60 60 60
5.9632 7.8616 1.6205 60 60 60
3.3668 2.8507 0.0145 60 60 60
-4.9920 -2.6856 -0.0696 60 60 60
-1.7229 5.8132 -0.0072 60 60 60
-3.1368 -3.2727 0.4020 60 60 60
5.8141 -10.5918 2.9494 60 60 60
0.9154 0.0009 1.8386 60 60 60
1.1652 0.4543 1.4942 60 60 60
-6.1067 11.8221 1.8814 60 60 60
-7.5592 2.0183 -0.0306 60 60 60
0.2357 -0.3862 1.4970 60 60 60
1.0354 0.4754 1.5253 60 60 60
4.5133 6.2787 -0.0490 60 60 60
-5.1549 11.4328 2.1566 60 60 60
-0.2778 -3.0529 -0.0463 60 60 60
1.0372 -8.7124 0.3763 60 60 60
0.3318 -0.4911 1.4810 60 60 60
5.9665 -6.6913 -0.0044 60 60 60
-0.7641 9.8608 0.7809 60 60 60
0.7243 -4.5548 0.4108 60 60 60
1.6369 -8.5976 0.1535 60 60 60
0.9083 0.0010 1.8384 60 60 60
2.5350 -3.5026 -0.0966 60 60 60
1.3402 0.3819 1.5225 60 60 60
0.8775 0.0013 1.8376 60 60 60
-1.8465 -2.9516 -0.0498 60 60 60
2.0330 4.3870 0.0097 60 60 60
-5.1242 -2.9657 1.4817 60 60 60
0.3708 -0.3900 1.5050 60 60 60
0.9904 0.4333 1.5746 60 60 60
0.3715 -0.4132 1.4983 60 60 60
0.9067 0.0011 1.8384 60 60 60
5.9957 3.0935 0.0225 60 60 60
-3.2061 -3.1601 1.7782 60 60 60
9.5345 -6.3131 0.1677 60 60 60
2.8946 8.7322 2.8114 60 60 60
6.8924 7.9696 3.2158 60 60 60
-14.1071 8.7449 0.9378 60 60 60
0.7892 -7.4371 -0.1255 60 60 60
-16.1062 15.0037 6.4345 60 60 60
-6.1102 -3.4950 1.0525 60 60 60
4.9759 -4.3251 1.7780 60 60 60
2.8956 8.9177 3.0486 60 60 60
0.8758 0.0014 1.8376 60 60 60
9.9037 9.1863 1.1432 60 60 60
1.5494 -0.0472 1.5206 60 60 60
0.2253 -0.0021 1.5560 60 60 60
0.7662 -4.2545 -0.0646 60 60 60
16.5707 -13.2138 -0.3552 60 60 60
-8.9108 -1.0772 1.1364 60 60 60
0.9506 0.0004 1.8394 60 60 60
0.8750 0.0013 1.8376 60 60 60
1.7190 -7.2699 -0.1385 60 60 60
0.9587 0.0004 1.8396 60 60 60
0.2374 -4.5080 1.6454 60 60 60
-0.5597 9.9679 0.5238 60 60 60
2.8593 7.3697 -0.0547 60 60 60
0.6227 9.5275 0.5447 60 60 60
1.2378 -0.4392 1.4855 60 60 60
-0.0947 0.3243 1.4659 60 60 60
-12.8355 -12.3182 4.1711 60 60 60
4.7899 1.2374 0.0255 60 60 60
10.9989 8.4751 2.3145 60 60 60
0.6376 5.5720 -0.0122 60 60 60
-4.8027 -1.7008 -0.0523 60 60 60
1.5378 0.1125 1.4615 60 60 60
-75.4305 26.3285 5.4381 60 60 60
0.9441 0.0006 1.8393 60 60 60
-4.9561 -2.9678 1.4879 60 60 60
-23.6369 -19.3272 6.5944 60 60 60
6.1367 1.2788 0.0227 60 60 60
6.3433 7.8935 2.0515 60 60 60
1.3832 -0.2213 1.4837 60 60 60
5.9185 -1.0037 -0.0247 60 60 60
-0.1208 9.9075 2.8524 60 60 60
0.9081 0.0010 1.8384 60 60 60
0.8775 0.0013 1.8376 60 60 60
13.7411 8.3362 0.1882 60 60 60
0.3718 -0.2325 1.5265 60 60 60
1.7957 9.2670 1.8139 60 60 60
0.3011 -0.1579 1.5235 60 60 60
1.1496 -4.9146 -0.1127 60 60 60
-2.1045 -3.4265 1.0008 60 60 60
0.9596 0.0003 1.8396 60 60 60
5.4194 -4.2077 -0.1733 60 60 60
-0.6005 10.0642 3.1373 60 60 60
3.1633 -8.3463 0.0779 60 60 60
0.8701 0.0014 1.8375 60 60 60
2.9646 8.8794 0.6918 60 60 60
0.3831 0.2152 1.5294 60 60 60
-2.8315 -3.0147 0.0141 60 60 60
0.9471 0.0005 1.8394 60 60 60
0.9623 0.0003 1.8397 60 60 60
-14.3013 14.5265 5.5685 60 60 60
0.9509 0.0005 1.8394 60 60 60
-1.8344 -3.7168 -0.0863 60 60 60
1.4373 -0.0383 1.4894 60 60 60
-1.0099 -3.7877 0.1522 60 60 60
6.6889 -4.3285 1.3925 60 60 60
-3.1670 3.8959 -0.0028 60 60 60
0.9544 0.0004 1.8395 60 60 60
4.9132 -3.1701 -0.1100 60 60 60
-4.9369 14.9242 3.6595 60 60 60
-3.7289 -36.4131 6.2564 60 60 60
0.8954 0.0011 1.8381 60 60 60
4.1037 -4.9427 -0.1780 60 60 60
-1.3634 -11.2648 4.0849 60 60 60
7.6923 -10.3569 3.8250 60 60 60
4.4850 -4.2580 0.4692 60 60 60
1.8465 9.2614 2.6812 60 60 60
0.9777 0.0001 1.8400 60 60 60
2.2447 -4.5439 1.7654 60 60 60
0.8842 -11.1926 2.0711 60 60 60
-0.2718 -4.3763 -0.1318 60 60 60
-5.1314 -11.6054 3.3116 60 60 60
0.9446 0.0006 1.8393 60 60 60
-0.1178 3.8647 0.0118 60 60 60
1.4353 -0.0714 1.4895 60 60 60
-1.8404 -3.6164 1.6382 60 60 60
-4.2331 -4.2168 0.4951 60 60 60
5.6678 -2.3782 -0.0788 60 60 60
0.8767 0.0013 1.8376 60 60 60
-3.0405 3.9987 -0.0021 60 60 60
5.3457 1.3763 0.0272 60 60 60
4.9607 7.2995 0.0793 60 60 60
1.3793 -0.3614 1.5219 60 60 60
4.2510 4.0384 0.0286 60 60 60
5.5558 -15.2366 0.8415 60 60 60
11.8224 8.5357 0.3786 60 60 60
-6.3327 12.1672 3.2087 60 60 60
1.4855 0.2340 1.4720 60 60 60
4.6389 6.1588 -0.0462 60 60 60
-13.7831 14.3063 1.6040 60 60 60
-2.3238 3.9878 0.0053 60 60 60
-0.5203 -3.1882 -0.0548 60 60 60
1.5225 0.1338 1.4676 60 60 60
1.1464 -0.5246 1.4776 60 60 60
-6.0781 5.1131 -0.0799 60 60 60
0.5177 -0.4367 1.5055 60 60 60
0.9476 0.0005 1.8394 60 60 60
0.8732 0.0013 1.8375 60 60 60
-1.5354 -3.1886 -0.0568 60 60 60
-0.7694 10.1085 2.4302 60 60 60
5.5399 0.1552 0.0197 60 60 60
4.1494 -8.1281 0.2242 60 60 60
-0.9921 3.3554 0.0100 60 60 60
-27.2162 -14.6377 3.8343 60 60 60
2.4169 3.8717 0.0168 60 60 60
5.4577 -1.7304 -0.0562 60 60 60
2.4637 9.0552 2.6414 60 60 60
5.8125 4.5240 0.0167 60 60 60
5.1121 7.4172 3.0603 60 60 60
3.7708 -5.1817 -0.0196 60 60 60
1.5861 -0.0417 1.5233 60 60 60
0.2743 -0.2817 1.5125 60 60 60
-5.3906 -11.6896 2.0982 60 60 60
0.9484 0.0005 1.8394 60 60 60
-4.6553 -2.9750 0.4438 60 60 60
-2.0385 10.5374 3.0360 60 60 60
0.8791 0.0013 1.8377 60 60 60
3.5275 8.7149 2.5841 60 60 60
0.3438 3.1012 0.0119 60 60 60
-14.9396 -5.3966 -0.1862 60 60 60
-27.9590 -5.1883 8.0275 60 60 60
0.9165 0.0009 1.8387 60 60 60
1.7030 0.4664 1.3661 60 60 60
-1.9232 -3.5897 1.5332 60 60 60
5.6278 -3.8202 -0.1555 60 60 60
0.5519 -0.4846 1.4955 60 60 60
0.1381 0.0538 1.5847 60 60 60
-1.1653 -6.3178 -0.1532 60 60 60
-9.4286 12.9315 2.3577 60 60 60
0.8718 0.0014 1.8375 60 60 60
4.7607 2.7920 0.0229 60 60 60
-6.6212 -4.4535 2.9980 60 60 60
5.3289 -2.2100 -0.0751 60 60 60
-6.6880 -0.1741 0.9426 60 60 60
7.7352 6.3684 -0.0136 60 60 60
0.8545 0.0015 1.8371 60 60 60
1.9511 -11.0986 1.2415 60 60 60
27.0783 -20.9821 2.1473 60 60 60
-4.8588 11.3170 1.8468 60 60 60
0.1854 0.0938 1.5162 60 60 60
8.2345 9.2909 2.0730 60 60 60
1.9113 -6.5949 -0.1449 60 60 60
-3.2222 3.2333 0.0033 60 60 60
1.2822 -0.4951 1.4800 60 60 60
-3.6245 -4.5053 -0.1099 60 60 60
3.4836 -4.3794 -0.1622 60 60 60
2.3152 -5.0836 -0.1724 60 60 60
-0.6583 4.6930 -0.0004 60 60 60
-0.1075 5.1678 -0.0103 60 60 60
-27.0527 -19.8719 1.4726 60 60 60
0.9888 -3.1948 -0.0758 60 60 60
7.7696 -7.4101 0.5564 60 60 60
0.5940 -4.6771 1.6224 60 60 60
-3.3937 -4.9778 0.1460 60 60 60
6.7755 -10.4685 1.2626 60 60 60
-5.4607 0.6448 -0.0120 60 60 60
-0.3993 4.7260 0.0046 60 60 60
-2.0400 -3.5772 1.8580 60 60 60
-4.5881 1.8154 0.0065 60 60 60
1.3523 0.4257 1.5226 60 60 60
0.8994 0.0011 1.8382 60 60 60
-3.8149 -4.5772 1.5843 60 60 60
2.9307 5.1449 0.0118 60 60 60
-2.0282 10.2684 0.7608 60 60 60
3.2229 -5.1473 -0.0573 60 60 60
-12.1580 -2.4529 -0.0596 60 60 60
2.3087 2.9404 0.0136 60 60 60
0.3280 0.2279 1.5206 60 60 60
-3.2947 -11.4457 1.1493 60 60 60
0.1033 -0.1524 1.5031 60 60 60
-1.8477 7.3100 -0.0518 60 60 60
0.1150 3.4537 0.0085 60 60 60
14.4680 -12.8290 1.1823 60 60 60
-3.8040 -3.3416 0.2555 60 60 60
0.4401 -7.5067 -0.1304 60 60 60
5.4755 2.1286 0.0242 60 60 60
-8.3149 -0.4181 1.6175 60 60 60
0.2871 0.2433 1.5200 60 60 60
0.9259 0.0008 1.8389 60 60 60
0.8756 0.0014 1.8376 60 60 60
-5.9904 1.1453 -0.0067 60 60 60
0.9598 0.0003 1.8396 60 60 60
4.0826 -10.7106 0.3566 60 60 60
0.9148 0.0010 1.8386 60 60 60
-1.7639 -11.3458 0.8442 60 60 60
-9.1263 -12.0315 3.3696 60 60 60
0.8796 0.0013 1.8377 60 60 60
8.2199 -10.3113 2.0657 60 60 60
5.4015 -10.6283 3.2241 60 60 60
-4.1829 -4.2743 0.9717 60 60 60
3.3733 3.9004 0.0247 60 60 60
0.9474 0.0005 1.8394 60 60 60
-3.8070 -2.7251 -0.0588 60 60 60
6.7264 -4.6362 0.1421 60 60 60
-4.1380 11.5603 3.5941 60 60 60
-1.5345 -11.3008 3.2770 60 60 60
26.2066 -20.4370 6.7215 60 60 60
-6.4591 12.0589 1.5578 60 60 60
-1.8025 -11.3137 3.5735 60 60 60
0.9512 0.0005 1.8394 60 60 60
-0.6323 2.9014 -0.0187 60 60 60
-5.0453 -9.8203 0.2031 60 60 60
-0.0157 5.1732 -0.0103 60 60 60
27.1794 -20.7972 2.9202 60 60 60
10.0507 -9.0062 -0.4218 60 60 60
6.4614 7.9401 3.4228 60 60 60
0.3718 0.1967 1.5278 60 60 60
2.5919 0.4028 1.0072 60 60 60
-5.6323 -4.3599 -0.1115 60 60 60
0.9789 0.4088 1.5767 60 60 60
-6.4709 -0.7814 0.2452 60 60 60
-9.0840 -2.2256 0.8574 60 60 60
8.0298 5.8337 -0.0074 60 60 60
0.1009 9.7159 2.3654 60 60 60
5.3244 6.5494 -0.0489 60 60 60
5.8332 2.2884 0.0260 60 60 60
0.4172 -0.2814 1.5182 60 60 60
-5.3192 8.3049 -0.0491 60 60 60
0.9492 0.0005 1.8394 60 60 60
6.1209 2.8006 0.0253 60 60 60
-3.8654 -11.5154 0.8652 60 60 60
0.9460 0.0005 1.8393 60 60 60
-5.2502 -1.9889 -0.0517 60 60 60
-0.1754 10.2260 3.6190 60 60 60
0.1662 -0.0557 1.5112 60 60 60
1.3318 4.9950 -0.0040 60 60 60
4.3983 5.3545 -0.0063 60 60 60
5.0413 1.3678 0.0236 60 60 60
-7.0191 10.8902 0.0290 60 60 60
-0.6189 -3.9676 -0.1052 60 60 60
5.0362 -2.0348 -0.0689 60 60 60
2.3032 9.0974 0.7130 60 60 60
-7.7557 12.3882 2.2791 60 60 60
-2.1052 -2.7210 -0.0471 60 60 60
1.3329 -8.6654 -0.0513 60 60 60
1.3666 0.2009 1.4894 60 60 60
-3.9141 -15.5436 0.5012 60 60 60
-2.2443 -3.4292 1.4311 60 60 60
-9.2672 16.2771 4.6197 60 60 60
4.1378 4.7894 0.0192 60 60 60
0.6348 9.5298 0.7706 60 60 60
-3.5642 -3.1569 1.9099 60 60 60
5.2090 -10.6466 3.7720 60 60 60
4.8811 8.2536 0.5951 60 60 60
0.9620 0.0003 1.8397 60 60 60
-4.7696 4.0001 -0.0430 60 60 60
1.7156 3.4557 0.0064 60 60 60
0.0924 9.7060 1.2282 60 60 60
6.1792 7.8909 2.7221 60 60 60
-6.6623 -0.4353 0.9432 60 60 60
9.2832 -10.2026 2.6577 60 60 60
0.9604 0.0003 1.8396 60 60 60
0.9463 0.0005 1.8393 60 60 60
1.4849 -0.0422 1.5160 60 60 60
-11.8497 13.7941 1.5935 60 60 60
-2.9572 -14.1046 2.6632 60 60 60
1.3831 -0.2075 1.4868 60 60 60
0.9081 0.0010 1.8384 60 60 60
0.8959 0.0011 1.8381 60 60 60
2.7755 3.0881 0.0146 60 60 60
0.9498 0.0004 1.8394 60 60 60
1.0347 -8.7247 -0.0478 60 60 60
-83.7195 7.0386 5.7629 60 60 60
0.7476 -5.0775 -0.1543 60 60 60
-7.8540 12.4111 2.6381 60 60 60
0.9590 0.0003 1.8396 60 60 60
-4.3659 -3.0240 0.7855 60 60 60
-8.3902 12.5940 5.2867 60 60 60
-3.5791 -3.0604 -0.0653 60 60 60
4.2881 -4.1428 -0.1591 60 60 60
3.7204 3.5937 0.0233 60 60 60
1.3421 0.2834 1.4985 60 60 60
2.5724 -14.3506 3.0735 60 60 60
0.9338 0.0007 1.8391 60 60 60
8.5838 -10.2860 2.6556 60 60 60
7.0193 -4.4818 0.2879 60 60 60
0.1023 -0.0697 1.5519 60 60 60
0.5641 0.4557 1.5045 60 60 60
3.8984 -8.1843 0.2421 60 60 60
5.0066 3.1110 0.0172 60 60 60
1.4111 -0.0616 1.4875 60 60 60
0.3839 7.4080 -0.0546 60 60 60
4.4595 1.4483 0.0277 60 60 60
0.6482 -4.1190 -0.1162 60 60 60
0.1071 0.1331 1.5043 60 60 60
-5.0553 -2.5909 -0.0728 60 60 60
7.3610 -10.3947 3.2313 60 60 60
-3.8405 -11.4773 1.1583 60 60 60
0.2439 0.3468 1.5037 60 60 60
3.8008 -4.0579 -0.1432 60 60 60
0.8915 0.0012 1.8380 60 60 60
4.4114 1.5770 0.0279 60 60 60
4.4247 -4.3591 1.6652 60 60 60
-17.2719 6.3333 -0.0024 60 60 60
0.1658 -0.0779 1.5103 60 60 60
0.7596 8.2192 -0.0734 60 60 60
-6.4939 -0.9570 0.2346 60 60 60
26.0992 -20.8642 5.2106 60 60 60
5.5388 -7.8954 0.0923 60 60 60
5.2699 -0.1632 0.0058 60 60 60
-3.5045 -3.0494 0.0967 60 60 60
7.0181 3.6932 0.0233 60 60 60
6.7974 -4.4269 0.3333 60 60 60
7.6734 -10.3679 2.9466 60 60 60
-4.3378 11.3430 1.2431 60 60 60
1.0539 6.5164 -0.0291 60 60 60
0.9417 0.0006 1.8392 60 60 60
-0.1681 3.0154 0.0074 60 60 60
1.0791 9.5211 3.4138 60 60 60
0.4023 3.4811 0.0087 60 60 60
1.6019 -0.2508 1.4369 60 60 60
-4.6753 -4.5610 2.4232 60 60 60
1.2153 -11.1767 2.3177 60 60 60
-0.6047 4.0459 0.0048 60 60 60
-4.9692 11.3267 0.0516 60 60 60
-62.2901 18.1091 1.7402 60 60 60
-1.1860 -3.7689 0.3626 60 60 60
0.9460 0.0005 1.8393 60 60 60
2.9473 8.8749 1.3346 60 60 60
0.8688 0.0014 1.8374 60 60 60
-18.4243 -3.7137 0.8853 60 60 60
-2.3116 12.2218 4.1154 60 60 60
-4.0074 -15.3334 1.6507 60 60 60
-3.3591 2.4090 0.0111 60 60 60
4.3958 1.6208 0.0271 60 60 60
0.1424 -0.0386 1.5868 60 60 60
-0.8305 -3.0488 -0.0460 60 60 60
0.9452 0.0005 1.8393 60 60 60
1.1114 9.4851 2.0663 60 60 60
5.9672 -10.5805 3.2244 60 60 60
2.1693 9.1600 2.8794 60 60 60
5.8152 0.9301 0.0187 60 60 60
1.5144 -4.4355 0.0428 60 60 60
-5.0382 -5.0084 1.5557 60 60 60
0.9769 0.0001 1.8400 60 60 60
26.1440 -20.6260 6.7373 60 60 60
-3.2042 -4.6716 1.1420 60 60 60
-1.2985 4.1315 0.0048 60 60 60
-3.8797 -2.6235 -0.0603 60 60 60
6.8162 -7.6149 0.6434 60 60 60
-8.8620 1.8605 -0.0494 60 60 60
2.0187 9.1632 0.2835 60 60 60
1.2557 -3.7783 -0.1014 60 60 60
-0.6638 -6.7126 -0.0817 60 60 60
-0.4318 3.1171 0.0126 60 60 60
0.9541 0.0004 1.8395 60 60 60
-1.2250 -11.2553 4.0716 60 60 60
0.9474 0.0005 1.8394 60 60 60
2.2835 -4.3122 -0.1427 60 60 60
13.2258 8.6146 2.6929 60 60 60
5.2436 0.2251 0.0161 60 60 60
3.9683 8.5476 0.6481 60 60 60
0.4737 0.3797 1.5213 60 60 60
0.9643 9.4281 1.6501 60 60 60
-7.3704 2.6955 -0.0382 60 60 60
0.8149 3.8866 0.0079 60 60 60
-7.9234 -11.9598 0.4793 60 60 60
0.8988 0.0012 1.8382 60 60 60
2.2035 3.2218 0.0125 60 60 60
0.4752 0.3556 1.5120 60 60 60
-10.3350 14.9165 4.6054 60 60 60
1.1405 0.5033 1.4966 60 60 60
11.2198 -6.3966 1.0647 60 60 60
2.3509 -11.0772 3.5787 60 60 60
0.8707 0.0014 1.8375 60 60 60
-1.7853 -11.3331 2.2042 60 60 60
-3.9489 -11.5238 0.8653 60 60 60
-2.6114 -4.0548 -0.0918 60 60 60
2.8137 3.3560 0.0064 60 60 60
0.3676 0.1907 1.5270 60 60 60
3.1471 2.7677 0.0142 60 60 60
-2.9446 2.9782 0.0047 60 60 60
4.8636 8.2424 0.3787 60 60 60
0.5921 3.6854 0.0132 60 60 60
-1.9740 -11.3352 2.7616 60 60 60
-3.1924 10.9776 1.2440 60 60 60
-6.7141 -1.3445 -0.0178 60 60 60
0.1220 0.2051 1.5032 60 60 60
0.2347 -0.4074 1.4918 60 60 60
0.4289 0.4353 1.5049 60 60 60
0.4827 0.3956 1.5190 60 60 60
0.9389 0.0006 1.8392 60 60 60
14.1421 8.9506 4.2495 60 60 60
0.9485 0.0005 1.8394 60 60 60
6.1774 -10.5662 2.9484 60 60 60
-23.4389 7.2475 0.0232 60 60 60
0.7195 -4.6489 1.2915 60 60 60
-15.8298 14.9038 2.6583 60 60 60
-3.2573 -5.0685 0.9410 60 60 60
3.5811 -2.8929 -0.0791 60 60 60
3.3088 -4.3854 0.8902 60 60 60
5.5683 7.9272 0.7756 60 60 60
0.8756 0.0013 1.8376 60 60 60
0.9474 0.0005 1.8394 60 60 60
1.4598 -0.0368 1.5118 60 60 60
7.9664 -10.3529 1.4874 60 60 60
3.1134 -17.0795 0.8890 60 60 60
0.2413 0.3378 1.5046 60 60 60
0.9409 0.0005 1.8392 60 60 60
0.9281 0.0007 1.8390 60 60 60
6.4735 -3.2415 -0.1383 60 60 60
-11.5245 3.9060 -0.0221 60 60 60
1.4336 -0.3459 1.5199 60 60 60
0.9550 0.0004 1.8395 60 60 60
1.0529 -11.1963 1.2804 60 60 60
4.9590 0.4547 0.0148 60 60 60
0.9449 0.0006 1.8393 60 60 60
-8.6908 3.1277 -0.0893 60 60 60
2.6511 -3.7424 -0.1114 60 60 60
-6.1905 11.8686 2.5281 60 60 60
-3.5306 3.5628 -0.0056 60 60 60
0.9568 0.0004 1.8396 60 60 60
-2.0964 10.2879 0.7596 60 60 60
-3.1562 -11.4806 1.1438 60 60 60
0.3929 0.2415 1.5281 60 60 60
-4.5428 11.2959 0.0676 60 60 60
0.4893 -0.4178 1.5029 60 60 60
-5.3177 -2.9266 0.4949 60 60 60
-5.2100 1.6031 0.0038 60 60 60
-2.8719 -2.7365 -0.0517 60 60 60
4.3685 5.3813 -0.0064 60 60 60
0.9029 0.0011 1.8383 60 60 60
0.9005 0.0011 1.8382 60 60 60
-2.2120 10.5774 2.5350 60 60 60
-6.8480 0.3041 0.7389 60 60 60
0.8723 0.0014 1.8375 60 60 60
3.1912 -2.9608 -0.0760 60 60 60
-4.3049 -11.4997 4.1326 60 60 60
0.9452 0.0005 1.8393 60 60 60
-0.5700 9.9527 0.2873 60 60 60
0.2978 0.3107 1.5109 60 60 60
0.2442 -0.1432 1.5191 60 60 60
-3.1524 -11.4470 3.1323 60 60 60
1.9151 -4.4662 -0.1445 60 60 60
3.8813 8.5962 1.7172 60 60 60
-3.3052 -3.1538 1.5334 60 60 60
1.3208 0.3992 1.5251 60 60 60
-2.8969 -11.4112 3.6803 60 60 60
0.9279 9.2953 2.7219 60 60 60
1.2156 3.8130 0.0116 60 60 60
-3.4612 11.0609 0.9664 60 60 60
0.2567 -0.2319 1.5136 60 60 60
-6.7396 4.5196 -0.1091 60 60 60
4.0367 8.4982 0.2139 60 60 60
-0.6933 8.8173 0.0384 60 60 60
0.4895 -0.4419 1.5120 60 60 60
-0.9040 -3.2707 -0.0605 60 60 60
0.8723 0.0013 1.8375 60 60 60
0.3063 3.1013 0.0095 60 60 60
6.3162 -4.3089 0.9285 60 60 60
-10.2883 9.8556 -0.0595 60 60 60
0.9200 0.0009 1.8388 60 60 60
9.1407 9.3825 0.6004 60 60 60
5.4547 -4.1427 -0.1698 60 60 60
4.1995 2.0373 0.0284 60 60 60
1.8739 -11.0936 2.8052 60 60 60
3.9461 -3.9151 -0.1407 60 60 60
9.9445 8.6236 0.8542 60 60 60
1.9538 -4.4798 0.9089 60 60 60
5.8180 0.8403 0.0225 60 60 60
13.5572 8.6982 1.2746 60 60 60
-0.8861 -3.0255 -0.0473 60 60 60
-0.9131 3.6521 0.0106 60 60 60
0.9097 0.0010 1.8385 60 60 60
0.8606 3.2491 0.0183 60 60 60
1.3395 0.2937 1.4966 60 60 60
-5.5175 -3.0588 -0.0779 60 60 60
-6.6802 -0.6144 0.9386 60 60 60
4.0901 8.5140 1.9191 60 60 60
-3.7243 -5.3503 -0.1583 60 60 60
-0.4567 4.0781 0.0063 60 60 60
0.2386 3.4666 0.0095 60 60 60
-6.0329 -11.7834 0.5314 60 60 60
0.9430 0.0006 1.8393 60 60 60
-4.5273 1.9707 0.0063 60 60 60
5.1396 5.5694 -0.0237 60 60 60
10.0326 8.3287 0.5658 60 60 60
9.9484 8.3737 1.7264 60 60 60
0.9230 0.0008 1.8388 60 60 60
-3.8453 11.1937 1.8125 60 60 60
0.8758 0.0013 1.8376 60 60 60
0.1343 0.2630 1.5004 60 60 60
-7.6662 -11.8897 3.5763 60 60 60
1.3405 -0.4364 1.4782 60 60 60
0.9441 0.0005 1.8393 60 60 60
-5.1347 -2.9244 0.3611 60 60 60
0.9514 0.0005 1.8395 60 60 60
-3.2983 -11.4630 3.4351 60 60 60
-3.2988 10.9325 2.8928 60 60 60
-24.8714 18.0391 7.5454 60 60 60
0.9064 0.0010 1.8384 60 60 60
6.0296 -2.7098 -0.0947 60 60 60
3.0881 8.8336 1.1157 60 60 60
4.8522 4.7890 0.0184 60 60 60
0.9751 -0.4407 1.5678 60 60 60
1.4160 -4.4469 0.1680 60 60 60
-0.0920 9.8651 0.2891 60 60 60
-2.3575 12.0386 3.7914 60 60 60
-4.8022 10.0805 -0.0453 60 60 60
-2.2378 -8.1840 -0.1120 60 60 60
-8.3249 -0.3102 1.6178 60 60 60
-14.1188 14.7582 6.5885 60 60 60
1.3753 0.2218 1.4970 60 60 60
-39.2617 -11.1420 -0.2237 60 60 60
-4.0733 8.9003 -0.0671 60 60 60
1.4205 -0.0243 1.5000 60 60 60
7.1951 5.1791 0.0049 60 60 60
9.7339 7.6298 0.0738 60 60 60
0.5657 0.4434 1.5105 60 60 60
1.3152 4.0388 0.0100 60 60 60
0.2675 -3.1771 -0.0586 60 60 60
-0.5088 3.0951 0.0102 60 60 60
1.4837 -0.1107 1.4762 60 60 60
-30.8865 -11.0329 0.1383 60 60 60
0.2410 -0.4806 1.4758 60 60 60
7.5453 -10.3901 3.8220 60 60 60
2.1395 -4.3817 -0.1454 60 60 60
4.7518 8.2981 2.9636 60 60 60
-18.3312 15.7024 5.1092 60 60 60
-4.7626 11.2897 1.8439 60 60 60
0.9468 0.0005 1.8394 60 60 60
-0.7287 -4.0090 0.9842 60 60 60
0.9403 0.0006 1.8392 60 60 60
0.9389 0.0006 1.8392 60 60 60
-4.8517 0.9859 -0.0025 60 60 60
0.9520 0.0005 1.8395 60 60 60
1.4427 -8.1071 -0.1367 60 60 60
0.9349 0.0007 1.8391 60 60 60
-3.5129 -3.1057 1.1477 60 60 60
5.6041 -10.6185 2.9518 60 60 60
1.4051 -0.4180 1.5327 60 60 60
3.3763 5.4748 -0.0053 60 60 60
1.2351 -4.4613 0.1783 60 60 60
5.4308 -10.5792 0.2548 60 60 60
-3.8455 2.3370 0.0115 60 60 60
-6.7079 -11.7977 3.1442 60 60 60
-7.1512 -11.8857 0.5029 60 60 60
1.4929 -11.1485 2.8253 60 60 60
7.0580 -3.6276 -0.1697 60 60 60
-12.6239 2.4264 -0.1094 60 60 60
0.8378 3.0961 0.0210 60 60 60
-4.8593 0.9533 -0.0030 60 60 60
4.2805 -4.2650 0.3708 60 60 60
0.9558 0.0004 1.8395 60 60 60
0.9300 0.0008 1.8390 60 60 60
-1.0206 3.6035 0.0128 60 60 60
-2.6256 -3.2724 1.5435 60 60 60
1.6408 4.8967 0.0009 60 60 60
0.8712 0.0014 1.8375 60 60 60
0.9474 0.0005 1.8394 60 60 60
5.4033 7.9938 2.5038 60 60 60
1.1906 -0.5151 1.4864 60 60 60
-5.8062 11.4950 0.6310 60 60 60
-3.9179 -4.5703 1.5841 60 60 60
1.3136 0.4227 1.5203 60 60 60
-6.2483 -9.7960 -0.1377 60 60 60
0.9422 0.0005 1.8393 60 60 60
1.3979 -0.5460 1.4566 60 60 60
-4.9211 -4.7519 2.0957 60 60 60
1.3795 -0.4963 1.4806 60 60 60
1.3463 -0.2766 1.4916 60 60 60
-12.6224 2.9937 -0.1285 60 60 60
0.9449 0.0005 1.8393 60 60 60
5.8272 7.8490 1.6267 60 60 60
0.9639 0.0003 1.8397 60 60 60
3.7345 -3.1283 -0.0919 60 60 60
1.6009 9.3033 0.2876 60 60 60
-6.6871 -11.7961 3.8062 60 60 60
1.4027 0.0206 1.4929 60 60 60
0.2260 -8.7772 0.3996 60 60 60
-3.1702 10.9633 1.5171 60 60 60
10.2034 8.3959 2.0134 60 60 60
-2.3290 -6.6255 -0.1378 60 60 60
-7.1441 -11.9727 2.5141 60 60 60
-1.2900 -11.3295 0.5622 60 60 60
5.2789 1.6171 0.0263 60 60 60
5.4405 7.9762 2.2878 60 60 60
-21.6919 10.7892 -0.0052 60 60 60
0.5434 -0.4734 1.4980 60 60 60
9.6553 8.3644 3.7291 60 60 60
-1.5029 -11.2846 4.1006 60 60 60
-1.4986 -3.2157 -0.0586 60 60 60
6.3095 -10.4878 3.4971 60 60 60
0.9186 0.0008 1.8387 60 60 60
3.9661 -6.7576 -0.0889 60 60 60
0.5682 -0.4969 1.4947 60 60 60
5.1602 0.9709 0.0139 60 60 60
-18.8153 10.1293 0.1944 60 60 60
-1.2712 4.1374 0.0066 60 60 60
24.5203 -25.8767 3.9518 60 60 60
-5.6561 -2.8561 0.2698 60 60 60
9.3660 8.3313 2.8551 60 60 60
-0.1274 -4.2802 1.0457 60 60 60
5.9053 -3.1543 -0.1220 60 60 60
0.3293 9.6441 3.2603 60 60 60
-10.9851 13.2882 1.1814 60 60 60
0.9007 0.0011 1.8382 60 60 60
-1.7175 -2.7479 -0.0476 60 60 60
4.2404 6.6030 -2.7602 60 60 60
2.4734 -11.0850 3.3114 60 60 60
0.9398 0.0006 1.8392 60 60 60
0.2723 9.6555 3.2651 60 60 60
0.8926 0.0012 1.8380 60 60 60
-7.1524 3.9223 -0.1123 60 60 60
-4.8076 3.9764 -0.0467 60 60 60
0.9512 0.0004 1.8394 60 60 60
0.2683 3.1045 0.0051 60 60 60
1.5249 -0.1462 1.4693 60 60 60
-3.8624 11.1929 1.5276 60 60 60
3.5884 8.6792 1.9422 60 60 60
5.2380 -1.2476 -0.0443 60 60 60
-0.0978 -11.2962 2.1195 60 60 60
27.6138 -16.2721 4.9503 60 60 60
1.3040 -6.2491 -0.1553 60 60 60
0.8991 0.0011 1.8382 60 60 60
-5.2537 1.4624 0.0028 60 60 60
0.9035 0.0011 1.8383 60 60 60
1.1528 4.0852 0.0053 60 60 60
0.9390 0.0006 1.8392 60 60 60
0.9536 0.0005 1.8395 60 60 60
-1.1084 3.8771 0.0062 60 60 60
-10.0745 7.3913 1.4424 60 60 60
1.4812 -0.0454 1.5179 60 60 60
-3.4654 5.0430 -0.0185 60 60 60
0.9097 0.0010 1.8385 60 60 60
-3.0238 -11.6166 1.9895 60 60 60
4.1483 -3.6606 -0.1268 60 60 60
4.7240 6.0585 -0.0411 60 60 60
1.9630 -10.9095 0.2184 60 60 60
5.1588 3.6298 0.0177 60 60 60
6.7646 -4.5548 0.1442 60 60 60
-10.6540 1.1855 -0.0830 60 60 60
1.0104 -5.0653 -0.1627 60 60 60
0.9444 0.0006 1.8393 60 60 60
1.6797 -8.5910 -0.0571 60 60 60
-0.3329 9.7291 0.0811 60 60 60
0.1382 -0.0529 1.5215 60 60 60
2.4545 -3.5432 -0.0938 60 60 60
0.8951 0.0011 1.8381 60 60 60
0.9395 0.0006 1.8392 60 60 60
-0.1671 8.3322 -0.0729 60 60 60
2.8871 4.2622 0.0216 60 60 60
-4.1997 5.4327 -0.0387 60 60 60
0.9506 0.0004 1.8394 60 60 60
-5.9588 -4.1549 1.7698 60 60 60
5.4959 0.6767 0.0215 60 60 60
4.8215 -23.4572 2.1510 60 60 60
24.6872 -25.1060 6.3427 60 60 60
-5.0992 -11.5800 3.9269 60 60 60
1.3348 -11.1531 2.0498 60 60 60
-7.1546 -0.3235 1.0771 60 60 60
5.4266 -10.6609 1.3341 60 60 60
-26.8136 -17.8751 3.8363 60 60 60
9.4297 5.5791 0.0106 60 60 60
-7.1407 -0.4158 1.0776 60 60 60
1.9211 9.2356 3.1155 60 60 60
0.2686 -0.0021 1.5357 60 60 60
0.9181 0.0009 1.8387 60 60 60
5.0049 8.2382 2.7427 60 60 60
-4.4968 -11.5209 3.5514 60 60 60
-0.0993 -8.4167 -0.1464 60 60 60
1.4014 0.4493 1.5361 60 60 60
-4.0054 11.3009 3.8465 60 60 60
1.0253 -3.1927 -0.0775 60 60 60
-2.6246 -11.4035 3.0884 60 60 60
5.3875 1.2456 0.0237 60 60 60
-0.0050 4.7859 -0.0016 60 60 60
-1.6449 -4.7050 -0.1361 60 60 60
1.3739 -0.2741 1.4944 60 60 60
0.9005 0.0011 1.8382 60 60 60
5.9912 -10.5972 1.3042 60 60 60
0.9544 0.0004 1.8395 60 60 60
0.9441 0.0006 1.8393 60 60 60
-4.4626 -11.5136 4.4618 60 60 60
0.5460 -0.4866 1.4927 60 60 60
0.1879 -0.1282 1.5167 60 60 60
10.0389 -5.2807 3.3833 60 60 60
1.4539 0.1570 1.4832 60 60 60
5.8088 -3.4255 -0.1375 60 60 60
9.8014 9.4430 0.5358 60 60 60
-4.7495 -11.5818 1.7693 60 60 60
0.9373 0.0007 1.8392 60 60 60
6.6624 7.9152 1.3604 60 60 60
-4.2337 13.4747 4.1590 60 60 60
-1.7820 3.8788 0.0122 60 60 60
-2.1844 5.0761 -0.0042 60 60 60
-1.1409 -3.8318 1.0008 60 60 60
7.7123 -10.3753 1.2102 60 60 60
0.4356 -4.5954 1.5253 60 60 60
0.9381 0.0007 1.8392 60 60 60
0.2580 0.5113 1.4678 60 60 60
0.0641 0.0945 1.5602 60 60 60
1.4235 -0.0863 1.4959 60 60 60
1.2854 0.3805 1.4931 60 60 60
-6.8066 -11.7337 4.8264 60 60 60
1.5567 -5.3638 -0.0380 60 60 60
-2.9600 -3.1409 0.8318 60 60 60
-7.6203 1.7748 -0.0300 60 60 60
1.2294 3.5858 0.0126 60 60 60
3.3005 4.3668 0.0299 60 60 60
0.3074 4.1718 0.0083 60 60 60
0.9414 0.0005 1.8392 60 60 60
-0.0966 7.4257 -0.0497 60 60 60
-1.6365 10.3877 2.4922 60 60 60
1.4649 9.2835 0.0742 60 60 60
1.6806 3.9402 0.0070 60 60 60
1.4564 -0.0331 1.5138 60 60 60
7.6146 -4.3399 0.1924 60 60 60
1.3098 0.4003 1.5113 60 60 60
-26.9396 -17.0432 3.0761 60 60 60
-1.8879 -3.6432 1.8518 60 60 60
-7.6507 -11.8825 3.9231 60 60 60
1.2647 -0.3933 1.4935 60 60 60
0.5567 0.4935 1.5044 60 60 60
4.7522 -1.9249 -0.0615 60 60 60
0.9287 0.0007 1.8390 60 60 60
14.6613 8.8591 1.6053 60 60 60
-10.7077 4.5078 3.2696 60 60 60
9.2068 -28.9970 5.6178 60 60 60
-3.7333 -2.8265 -0.0582 60 60 60
1.2399 0.3939 1.4909 60 60 60
0.8980 0.0011 1.8382 60 60 60
-8.9025 -11.9452 4.4452 60 60 60
-1.2123 8.9781 0.0069 60 60 60
1.6083 9.3269 2.2594 60 60 60
-0.0904 4.1529 0.0020 60 60 60
-5.2764 11.4705 3.3855 60 60 60
2.9352 3.2513 0.0113 60 60 60
0.9222 0.0008 1.8388 60 60 60
7.2747 -10.4046 2.9436 60 60 60
6.3790 7.9024 2.5001 60 60 60
0.9202 0.0009 1.8388 60 60 60
0.9501 0.0005 1.8394 60 60 60
-1.4549 -6.8178 -0.1355 60 60 60
0.9427 0.0006 1.8393 60 60 60
6.2200 -4.3288 1.2613 60 60 60
-3.0472 6.0229 -0.0197 60 60 60
16.8438 -12.0760 -0.3302 60 60 60
-30.2077 19.9567 3.3356 60 60 60
0.4998 9.5819 3.2419 60 60 60
0.9468 0.0005 1.8394 60 60 60
3.6697 4.0793 0.0272 60 60 60
0.2336 0.0264 1.5394 60 60 60
0.2521 0.1470 1.5193 60 60 60
-1.2688 8.3166 -0.0681 60 60 60
5.5183 1.9846 0.0279 60 60 60
0.0721 9.7271 1.9112 60 60 60
-4.1024 -3.1321 -0.0718 60 60 60
-19.0029 -0.8964 1.8251 60 60 60
0.3684 0.4518 1.4994 60 60 60
-0.1162 -4.3958 -0.1317 60 60 60
0.8788 0.0013 1.8377 60 60 60
1.2584 0.3704 1.4921 60 60 60
0.9523 0.0004 1.8395 60 60 60
5.0580 8.2251 2.7417 60 60 60
1.4455 0.2039 1.4798 60 60 60
1.5588 -0.0040 1.5355 60 60 60
-9.2861 -12.0512 2.6442 60 60 60
0.4709 -0.4167 1.5150 60 60 60
-10.2356 -1.9620 -0.0461 60 60 60
-5.4493 -4.4448 2.8506 60 60 60
-3.4131 -11.5086 0.5723 60 60 60
-1.6505 5.8284 -0.0057 60 60 60
4.4969 6.5240 -2.8068 60 60 60
0.3699 -0.3951 1.5032 60 60 60
-0.1062 -0.1231 1.4797 60 60 60
0.7784 3.2708 0.0216 60 60 60
3.9022 8.5564 0.4359 60 60 60
-0.4123 8.7068 0.0580 60 60 60
5.4189 2.2350 0.0288 60 60 60
1.2228 -11.1584 2.5768 60 60 60
0.3797 0.3399 1.5160 60 60 60
0.9452 0.0005 1.8393 60 60 60
-11.7328 -7.2133 0.0181 60 60 60
-7.0840 12.1693 2.2476 60 60 60
5.5610 -0.2582 0.0095 60 60 60
1.3266 -0.3153 1.5084 60 60 60
-5.1510 5.8812 -0.0658 60 60 60
-3.0562 -5.4253 0.4198 60 60 60
-6.3794 -11.7654 3.7695 60 60 60
1.2104 -0.4836 1.4943 60 60 60
0.0291 -3.1357 -0.0536 60 60 60
-1.9584 -3.2187 -0.0600 60 60 60
0.9026 0.0011 1.8383 60 60 60
-1.4084 10.4031 0.9855 60 60 60
1.6915 4.1989 0.0119 60 60 60
3.2541 -10.9987 3.5487 60 60 60
-1.2959 -11.2930 2.1785 60 60 60
-0.2101 -3.7749 -0.0901 60 60 60
5.2734 -4.3301 1.7692 60 60 60
-7.5062 -11.9412 0.1444 60 60 60
1.4538 -0.2450 1.4748 60 60 60
0.8764 0.0014 1.8376 60 60 60
-0.5486 -4.3026 -0.1213 60 60 60
1.2514 9.4329 0.7357 60 60 60
0.8393 -3.8458 -0.1038 60 60 60
0.1223 -0.3039 1.4934 60 60 60
0.4719 -0.4205 1.5139 60 60 60
0.9506 0.0004 1.8394 60 60 60
0.9322 0.0007 1.8390 60 60 60
4.8299 -4.3773 1.5095 60 60 60
-1.5991 4.8371 -0.0066 60 60 60
12.7408 8.5327 1.6515 60 60 60
-2.4775 -3.5559 -0.0494 60 60 60
4.8509 -4.3536 1.3704 60 60 60
0.2402 0.0421 1.5220 60 60 60
0.8412 -3.1972 -0.0679 60 60 60
-6.5082 -11.7844 3.1266 60 60 60
3.2482 8.8030 3.0283 60 60 60
2.3503 9.1123 3.3057 60 60 60
0.8739 0.0014 1.8376 60 60 60
0.9775 0.0001 1.8400 60 60 60
4.3709 -13.9517 0.6362 60 60 60
0.4593 0.3504 1.5257 60 60 60
27.2886 -17.3721 4.2671 60 60 60
-1.9714 10.5850 0.9828 60 60 60
-0.5998 -4.2917 -0.1213 60 60 60
8.4025 -10.2974 2.3580 60 60 60
3.8979 -18.8474 0.7614 60 60 60
-2.4326 4.9524 -0.0028 60 60 60
-21.6116 10.9054 -0.0060 60 60 60
0.2214 -0.0145 1.5545 60 60 60
3.0771 8.8551 1.7545 60 60 60
-0.1052 3.6386 0.0072 60 60 60
-7.4865 12.3728 2.9676 60 60 60
3.7708 -3.0582 -0.0826 60 60 60
-10.2320 -2.0272 -0.0481 60 60 60
0.5337 0.4633 1.5102 60 60 60
0.1717 -0.0508 1.5136 60 60 60
-3.1949 3.8778 -0.0043 60 60 60
3.1208 -11.0306 3.2890 60 60 60
-21.6355 16.8356 8.2898 60 60 60
-3.7230 -4.5844 1.2795 60 60 60
1.0891 9.4911 0.7375 60 60 60
1.1590 -0.5117 1.4987 60 60 60
0.9083 0.0010 1.8384 60 60 60
-20.3979 1.7347 -0.1687 60 60 60
-3.3349 4.4029 -0.0086 60 60 60
4.2487 8.4544 0.1980 60 60 60
0.2700 0.0636 1.5342 60 60 60
1.1633 5.9296 -0.0193 60 60 60
2.4780 3.8273 0.0209 60 60 60
1.2458 5.0116 -0.0028 60 60 60
0.7909 -4.1083 -0.1159 60 60 60
0.9447 0.0005 1.8393 60 60 60
-5.4392 11.5107 2.4764 60 60 60
-0.1545 9.9961 1.4529 60 60 60
3.0743 -6.8083 -0.1597 60 60 60
9.3698 -4.6686 -0.1676 60 60 60
-0.5876 7.4465 -0.0535 60 60 60
12.2723 8.5892 1.9992 60 60 60
-0.1877 5.5898 -0.0134 60 60 60
3.5269 -6.3840 -0.1171 60 60 60
0.9514 0.0005 1.8395 60 60 60
-0.8051 3.4310 0.0116 60 60 60
0.5144 0.0999 1.6120 60 60 60
0.8434 9.4522 1.4337 60 60 60
2.4723 -8.4494 0.5340 60 60 60
0.8910 0.0012 1.8380 60 60 60
-9.7167 6.3034 0.0278 60 60 60
6.6727 7.8892 2.9624 60 60 60
-8.9033 12.7530 2.7083 60 60 60
5.2673 -19.6075 2.9928 60 60 60
0.9417 0.0005 1.8392 60 60 60
1.1022 9.3035 2.9353 60 60 60
-2.7289 10.7468 2.8399 60 60 60
0.8902 0.0011 1.8380 60 60 60
-2.5478 -3.2230 0.7569 60 60 60
0.5901 0.5178 1.5030 60 60 60
-0.5000 -6.5172 -0.0242 60 60 60
5.6002 -4.3402 1.7598 60 60 60
0.9561 0.0004 1.8396 60 60 60
-2.3108 -3.4348 1.8692 60 60 60
3.0778 6.4062 -0.0341 60 60 60
0.9766 0.0002 1.8400 60 60 60
-4.3454 -11.5479 1.1628 60 60 60
0.2467 -0.0220 1.5454 60 60 60
10.0365 8.4013 2.5942 60 60 60
9.1146 -10.2416 2.6583 60 60 60
-5.4217 5.7310 -0.0782 60 60 60
-2.5976 -6.5862 -0.1496 60 60 60
0.9284 0.0007 1.8390 60 60 60
-28.4317 3.1083 1.8251 60 60 60
0.9444 0.0005 1.8393 60 60 60
-8.3324 -0.2571 1.6179 60 60 60
0.8925 8.1201 -0.0721 60 60 60
8.3111 5.1754 0.0062 60 60 60
2.3259 9.1007 2.0036 60 60 60
1.7848 -8.5825 0.1467 60 60 60
9.9161 8.9000 0.8481 60 60 60
0.9577 0.0004 1.8396 60 60 60
-5.1526 -2.9836 1.7952 60 60 60
6.4708 -10.4883 3.7863 60 60 60
4.1825 -4.2632 -0.1635 60 60 60
10.5603 8.2480 3.1946 60 60 60
6.5889 -4.3150 0.8953 60 60 60
2.6598 4.0421 0.0213 60 60 60
-4.9162 -1.1322 -0.0364 60 60 60
5.8504 3.3770 0.0221 60 60 60
4.9509 8.2364 1.8813 60 60 60
0.4322 -0.3681 1.5170 60 60 60
0.9303 0.0007 1.8390 60 60 60
-27.6362 18.8149 4.0107 60 60 60
-8.0213 11.1412 -0.0563 60 60 60
-4.6561 5.1521 -0.0540 60 60 60
-9.6662 -12.0086 4.9419 60 60 60
-10.7572 13.2161 1.5957 60 60 60
2.2020 3.9988 0.0099 60 60 60
-1.5373 7.3756 -0.0552 60 60 60
4.0700 4.8706 0.0142 60 60 60
-11.7575 -12.2835 2.8008 60 60 60
3.3843 -4.9659 -0.1816 60 60 60
0.2622 0.3942 1.4996 60 60 60
-3.1854 3.2822 0.0010 60 60 60
-6.7055 -1.4781 -0.0230 60 60 60
-8.6883 3.6882 -0.1316 60 60 60
25.5430 -25.8625 0.6407 60 60 60
0.9490 0.0005 1.8394 60 60 60
0.2758 -0.0747 1.5377 60 60 60
1.1903 -8.6787 0.1642 60 60 60
3.1399 4.5024 0.0234 60 60 60
0.8793 0.0013 1.8377 60 60 60
0.9338 0.0007 1.8391 60 60 60
-5.1546 11.2359 0.3610 60 60 60
4.4033 8.4144 2.1190 60 60 60
0.9151 0.0009 1.8386 60 60 60
0.4700 -4.6357 1.8471 60 60 60
-30.2785 19.8940 6.8137 60 60 60
1.5258 4.5664 0.0084 60 60 60
2.5570 -3.2086 -0.0830 60 60 60
1.3380 -0.3642 1.5221 60 60 60
0.8615 0.0014 1.8372 60 60 60
-8.8005 -12.0757 0.0797 60 60 60
4.3346 8.4466 1.6962 60 60 60
2.5718 5.9673 -0.0167 60 60 60
-5.8704 1.5297 0.0021 60 60 60
10.1818 -5.1122 -0.1038 60 60 60
-14.6833 14.5727 0.1137 60 60 60
0.4459 0.2963 1.5192 60 60 60
1.6397 -0.1309 1.4301 60 60 60
-8.5224 -2.6912 -0.0447 60 60 60
1.6162 0.1252 1.4398 60 60 60
-3.5079 -3.1616 -0.0689 60 60 60
0.4315 9.4755 1.0079 60 60 60
2.9368 -4.4072 0.9323 60 60 60
-2.5337 8.1238 -0.0632 60 60 60
-26.0617 18.2012 8.5378 60 60 60
-6.7683 5.5581 -0.0271 60 60 60
-25.2625 -19.4210 7.6063 60 60 60
-3.9677 -11.5010 2.3239 60 60 60
0.9118 0.0010 1.8385 60 60 60
7.4543 -10.3820 3.8159 60 60 60
-29.8590 -20.0813 4.0579 60 60 60
6.4393 7.9274 3.1874 60 60 60
-19.5336 -5.8009 -0.2124 60 60 60
25.6784 -25.4119 0.6357 60 60 60
3.0580 3.1490 0.0120 60 60 60
0.3428 -4.3502 0.1401 60 60 60
4.6227 -10.8497 2.9801 60 60 60
7.8052 -10.4247 0.3233 60 60 60
0.3430 9.6449 3.4899 60 60 60
0.8109 3.4796 0.0088 60 60 60
6.2765 -3.8431 -0.1718 60 60 60
8.1168 5.6955 -0.0088 60 60 60
0.9466 0.0005 1.8393 60 60 60
-7.7500 -5.2866 -0.1678 60 60 60
-5.6751 -11.6770 4.0044 60 60 60
4.5132 -2.4672 -0.0757 60 60 60
0.8883 0.0012 1.8379 60 60 60
-4.3389 13.5136 4.1745 60 60 60
-7.2323 12.3359 5.0651 60 60 60
0.3237 -3.1847 -0.0602 60 60 60
1.3983 -0.0016 1.5137 60 60 60
0.8685 0.0014 1.8374 60 60 60
5.4659 7.9558 1.8571 60 60 60
0.1161 -8.8963 0.1678 60 60 60
-7.3497 0.3377 1.0606 60 60 60
3.1159 -8.3615 0.0797 60 60 60
4.2443 6.4971 -0.0501 60 60 60
-1.3022 4.9471 -0.0096 60 60 60
0.1851 0.0632 1.5178 60 60 60
0.2657 3.6784 0.0111 60 60 60
-0.6666 3.7377 0.0108 60 60 60
-0.8928 3.6641 0.0089 60 60 60
9.9315 8.6947 1.1484 60 60 60
-1.7718 9.1681 -0.0359 60 60 60
-1.2032 -2.8482 -0.0448 60 60 60
4.9942 1.5158 0.0246 60 60 60
0.8723 0.0014 1.8375 60 60 60
-5.2841 -4.4837 2.4720 60 60 60
-18.0992 -3.6529 0.4495 60 60 60
-5.7359 9.7864 -0.0485 60 60 60
-10.0216 13.0788 0.7938 60 60 60
0.9308 0.0007 1.8390 60 60 60
1.0173 -0.4335 1.5783 60 60 60
9.3958 7.9654 0.0935 60 60 60
-0.7576 10.0052 0.2828 60 60 60
1.3844 0.1426 1.4906 60 60 60
0.9127 0.0009 1.8386 60 60 60
0.9338 0.0007 1.8391 60 60 60
1.4662 5.8398 -0.0142 60 60 60
-2.0344 -3.1555 -0.0580 60 60 60
-17.0149 9.6528 1.7453 60 60 60
-1.3998 -3.2747 -0.0589 60 60 60
4.0392 5.7136 -0.0196 60 60 60
2.7477 3.9855 0.0222 60 60 60
-7.1096 12.3053 5.0416 60 60 60
0.9590 0.0003 1.8396 60 60 60
5.7973 7.7744 2.9200 60 60 60
1.3600 9.3951 0.7344 60 60 60
0.9578 0.4616 1.5801 60 60 60
-0.4246 5.5819 -0.0166 60 60 60
0.1685 5.1794 -0.0105 60 60 60
5.2018 0.6622 0.0175 60 60 60
-5.2265 -9.8582 0.1906 60 60 60
0.9162 0.0009 1.8387 60 60 60
3.3329 -8.2019 0.4997 60 60 60
0.2203 9.6340 2.3554 60 60 60
-16.4772 15.0919 2.1527 60 60 60
1.3509 -0.3969 1.5240 60 60 60
-4.4764 11.0617 0.6863 60 60 60
