ply
format ascii 1.0
element vertex 1529
property float x
property float y
property float z
property uchar red
property uchar green
property uchar blue
end_header
-0.9419 2.8971 0.0126 60 60 60
-1.2528 -3.7434 0.4736 60 60 60
5.2418 2.6500 0.0246 60 60 60
-10.9170 13.3157 4.9516 60 60 60
1.3565 -0.3926 1.5229 60 60 60
3.9086 -3.3953 -0.1068 60 60 60
-3.0878 3.9547 -0.0007 60 60 60
-2.9091 -5.1345 -0.1492 60 60 60
1.4809 -6.1964 -0.1520 60 60 60
1.2840 0.3567 1.5030 60 60 60
-4.6465 11.2973 3.9145 60 60 60
-2.5223 -11.7501 0.5365 60 60 60
0.9216 9.4538 1.8713 60 60 60
-75.7817 22.0204 3.5860 60 60 60
1.7933 -6.0933 -0.1470 60 60 60
0.9257 0.0007 1.8389 60 60 60
5.1609 8.1764 1.8726 60 60 60
-4.5308 -2.4743 -0.0733 60 60 60
-5.9767 -1.4194 -0.0249 60 60 60
2.1209 9.1519 1.1519 60 60 60
0.9192 0.0009 1.8387 60 60 60
-8.9167 4.1770 0.0443 60 60 60
7.0206 -10.5172 0.3910 60 60 60
26.6932 -22.1851 2.1840 60 60 60
1.2374 4.6501 0.0042 60 60 60
1.8011 0.3269 1.3477 60 60 60
0.9094 0.0010 1.8385 60 60 60
0.2538 7.4057 -0.0507 60 60 60
0.9506 0.0005 1.8394 60 60 60
0.4224 -0.3128 1.5117 60 60 60
0.9938 -11.2882 3.3934 60 60 60
-3.6812 -4.6082 1.7347 60 60 60
-2.7387 2.7170 0.0046 60 60 60
1.3051 9.4162 0.7349 60 60 60
0.9200 0.0008 1.8388 60 60 60
0.9189 0.0008 1.8387 60 60 60
6.9679 -3.8674 -0.1772 60 60 60
12.2428 8.6172 2.9997 60 60 60
1.1261 0.5288 1.4884 60 60 60
3.8084 -14.1143 0.6594 60 60 60
3.3247 8.7757 2.5937 60 60 60
-7.1267 10.9050 0.0216 60 60 60
-10.3740 13.0055 0.3908 60 60 60
1.3203 3.3699 0.0077 60 60 60
-4.4976 4.2432 -0.0327 60 60 60
4.9058 3.2640 0.0180 60 60 60
2.1607 7.9659 0.0748 60 60 60
-4.6792 6.1584 -0.0537 60 60 60
0.9097 0.0010 1.8385 60 60 60
-1.6937 -3.6827 1.6336 60 60 60
-0.2385 -4.0533 -0.1076 60 60 60
0.9106 9.4251 0.5294 60 60 60
0.0956 -0.1388 1.5011 60 60 60
1.4261 -0.3243 1.4910 60 60 60
-7.9166 -11.8424 4.6563 60 60 60
-7.0979 5.1190 -0.0189 60 60 60
5.0974 8.1963 1.6608 60 60 60
-7.6713 1.4797 -0.0271 60 60 60
3.6043 -3.7434 -0.1227 60 60 60
0.9625 0.0003 1.8397 60 60 60
0.5581 4.4419 0.0126 60 60 60
1.9881 9.2315 3.3338 60 60 60
1.9596 -4.1203 -0.1284 60 60 60
0.4384 0.3044 1.5134 60 60 60
4.8397 8.3057 3.4047 60 60 60
1.2417 0.4841 1.4880 60 60 60
0.9146 0.0009 1.8386 60 60 60
-0.6344 -8.9921 -0.0532 60 60 60
4.9602 -4.2857 0.8053 60 60 60
-1.9127 -4.0655 -0.0954 60 60 60
0.9506 0.0005 1.8394 60 60 60
0.3946 -0.2410 1.5175 60 60 60
2.5927 -6.3115 -0.1387 60 60 60
-18.6971 3.2041 -0.0315 60 60 60
0.2806 0.2370 1.5185 60 60 60
-3.1097 11.1047 3.4501 60 60 60
8.0546 -4.2773 0.1155 60 60 60
1.7738 4.8232 0.0118 60 60 60
0.9010 0.0011 1.8382 60 60 60
2.5331 3.2705 0.0097 60 60 60
0.9482 0.0005 1.8394 60 60 60
-15.8304 2.6333 -0.1553 60 60 60
-4.9476 -3.9727 1.6031 60 60 60
-0.3688 -11.3567 2.1338 60 60 60
0.9574 0.0003 1.8396 60 60 60
-6.0914 -1.0713 -1.5436 60 60 60
-2.8695 3.5667 0.0064 60 60 60
-0.2792 -3.7700 -0.0941 60 60 60
0.9441 0.0006 1.8393 60 60 60
0.9598 0.0003 1.8396 60 60 60
-6.1312 0.4704 -0.0208 60 60 60
-7.8540 12.4111 2.6381 60 60 60
0.9452 0.0005 1.8393 60 60 60
-3.1458 -11.4537 3.4209 60 60 60
4.3591 2.3028 0.0219 60 60 60
-3.2527 -5.0866 1.5574 60 60 60
-7.5599 -11.8043 4.9539 60 60 60
-10.1885 -12.1278 3.8596 60 60 60
6.3065 -10.5169 2.9442 60 60 60
0.9474 0.0005 1.8394 60 60 60
3.9530 8.5662 2.1389 60 60 60
0.9165 0.0009 1.8387 60 60 60
-1.2729 -7.5470 -0.1348 60 60 60
-2.6954 -11.3996 3.0933 60 60 60
-26.4302 18.4132 7.8306 60 60 60
-8.2707 -11.9431 2.9350 60 60 60
0.9075 0.0011 1.8384 60 60 60
-1.2404 -11.3777 0.2801 60 60 60
-20.6951 16.5159 3.5212 60 60 60
6.7287 -4.6980 -0.0498 60 60 60
-3.1400 -3.2344 0.2771 60 60 60
-6.0154 -11.7274 2.7639 60 60 60
0.9455 0.0005 1.8393 60 60 60
-5.2234 -4.8109 1.5634 60 60 60
5.3457 -3.2622 -0.1215 60 60 60
1.5232 -11.2189 3.6281 60 60 60
4.0168 8.5667 3.2096 60 60 60
0.8780 0.0013 1.8377 60 60 60
3.2106 -8.3248 0.0773 60 60 60
2.9062 -3.9177 -0.1226 60 60 60
-2.2934 5.6220 -0.0085 60 60 60
1.3812 0.1583 1.4897 60 60 60
-17.6133 1.2075 1.8312 60 60 60
-2.1286 -3.4131 1.0007 60 60 60
0.8712 0.0014 1.8375 60 60 60
-0.9198 6.6499 -0.0293 60 60 60
2.7665 -6.2318 -0.1387 60 60 60
0.9338 0.0007 1.8391 60 60 60
2.2882 3.4101 0.0126 60 60 60
26.9514 -21.3770 2.1592 60 60 60
-7.1376 -1.0256 1.0686 60 60 60
-5.1935 1.6351 0.0057 60 60 60
2.3038 3.6696 0.0083 60 60 60
6.7258 7.9232 1.1249 60 60 60
0.9398 0.0006 1.8392 60 60 60
5.2159 5.4668 -0.0196 60 60 60
0.9420 0.0005 1.8393 60 60 60
-22.0510 -4.1356 1.7979 60 60 60
1.3839 -0.2574 1.4929 60 60 60
1.1486 0.4965 1.4972 60 60 60
0.2253 -0.0021 1.5560 60 60 60
2.9751 6.4748 -0.0373 60 60 60
0.9544 0.0004 1.8395 60 60 60
-2.8076 9.7413 0.0793 60 60 60
2.6888 6.6276 -0.0397 60 60 60
0.9809 9.3329 0.0918 60 60 60
3.8521 8.5723 0.4385 60 60 60
-10.4895 13.1537 2.8132 60 60 60
5.2415 -2.4292 -0.0792 60 60 60
0.9495 0.0005 1.8394 60 60 60
2.8373 -6.2071 -0.1414 60 60 60
0.9395 0.0006 1.8392 60 60 60
1.4169 4.9656 -0.0011 60 60 60
0.9395 0.0006 1.8392 60 60 60
-43.1433 15.1149 0.6604 60 60 60
0.8853 0.0013 1.8378 60 60 60
2.3534 3.9118 0.0144 60 60 60
1.6909 9.2909 0.9475 60 60 60
-2.0704 -5.7475 -0.0521 60 60 60
-9.5344 3.9491 -0.0308 60 60 60
0.0524 9.7360 3.5227 60 60 60
0.4300 0.1938 1.5387 60 60 60
0.5756 -4.1279 -0.1189 60 60 60
-4.6193 11.2927 1.5437 60 60 60
-2.6125 -11.4002 3.3705 60 60 60
1.8677 9.2182 2.2434 60 60 60
0.3682 0.4686 1.4941 60 60 60
-4.3569 -9.0327 -0.1597 60 60 60
1.2906 0.3415 1.4876 60 60 60
1.4086 -0.0709 1.4886 60 60 60
-5.3418 -1.5153 -0.0326 60 60 60
1.5983 9.3173 1.1687 60 60 60
-9.9288 -12.0356 5.3819 60 60 60
0.9550 0.0004 1.8395 60 60 60
5.3898 -4.9708 0.0165 60 60 60
-0.2433 9.9446 2.8629 60 60 60
5.0240 -4.6813 -0.0136 60 60 60
4.7590 6.0357 -0.0427 60 60 60
3.8089 -8.2230 0.0333 60 60 60
0.9582 0.0004 1.8396 60 60 60
0.8500 4.4045 0.0068 60 60 60
0.9398 0.0006 1.8392 60 60 60
1.4419 0.0113 1.5216 60 60 60
-2.0393 -11.3440 3.0410 60 60 60
0.9309 0.0007 1.8390 60 60 60
0.2289 -0.3346 1.5053 60 60 60
1.3114 0.2998 1.4918 60 60 60
-1.7616 -3.6384 1.5312 60 60 60
-3.5918 -4.6110 1.2820 60 60 60
-4.3497 -2.9651 0.2019 60 60 60
-4.5321 -11.5725 0.8658 60 60 60
1.5703 9.3307 1.6069 60 60 60
0.9447 0.0005 1.8393 60 60 60
-3.6096 -3.1511 1.9113 60 60 60
0.8696 0.0014 1.8374 60 60 60
7.1951 5.1791 0.0049 60 60 60
1.3526 0.4309 1.5210 60 60 60
-2.6832 -3.2114 1.5462 60 60 60
3.2272 -3.6577 -0.1121 60 60 60
8.9776 -10.2608 0.5245 60 60 60
0.5070 5.5891 -0.0144 60 60 60
-1.3267 -3.7227 0.4707 60 60 60
-7.1261 -0.8835 1.0724 60 60 60
-11.0180 13.3432 3.6913 60 60 60
7.4830 -10.3853 1.7952 60 60 60
-14.7205 -3.3828 1.4322 60 60 60
-1.2445 -3.0877 -0.0546 60 60 60
0.3992 0.2621 1.5260 60 60 60
-3.1841 -3.3077 0.2520 60 60 60
-8.6288 13.0402 3.0786 60 60 60
5.9556 1.9254 0.0274 60 60 60
-8.3283 6.7364 0.4110 60 60 60
-3.5263 -3.2611 0.3270 60 60 60
1.0730 9.4891 1.4046 60 60 60
10.3032 -8.5304 -0.4125 60 60 60
0.9599 0.0003 1.8396 60 60 60
-4.2906 -2.8504 -0.0691 60 60 60
4.5319 3.1521 0.0206 60 60 60
-5.2307 11.4454 2.4630 60 60 60
6.5000 -3.1272 -0.1307 60 60 60
0.9522 0.0005 1.8395 60 60 60
0.9536 0.0004 1.8395 60 60 60
-0.6593 5.0931 -0.0071 60 60 60
1.3690 -0.2499 1.4854 60 60 60
0.9075 3.4461 0.0087 60 60 60
1.6562 -11.1285 2.0348 60 60 60
-2.6556 -2.8710 -0.0230 60 60 60
0.4451 0.3209 1.5112 60 60 60
4.3473 -4.3707 1.5392 60 60 60
0.0304 0.1511 1.4982 60 60 60
0.9119 0.0009 1.8385 60 60 60
6.8368 -4.3393 0.1547 60 60 60
-4.6093 11.3402 2.1312 60 60 60
-11.8747 13.7295 5.1318 60 60 60
0.9135 0.0009 1.8386 60 60 60
0.0276 -0.2093 1.4944 60 60 60
-5.2128 3.3302 -0.0308 60 60 60
3.0061 3.8131 0.0218 60 60 60
2.8794 8.9223 0.9086 60 60 60
-10.2453 13.1772 2.7987 60 60 60
0.9550 0.0004 1.8395 60 60 60
1.2838 0.3446 1.4900 60 60 60
-1.7122 3.2238 0.0141 60 60 60
4.7117 -4.9374 -0.1568 60 60 60
2.6287 -0.3143 0.9998 60 60 60
2.2231 9.1146 1.1487 60 60 60
-13.3622 8.5047 0.1929 60 60 60
7.9258 -4.4227 0.3271 60 60 60
0.9558 0.0004 1.8395 60 60 60
-2.3373 3.1295 0.0030 60 60 60
0.8710 0.0014 1.8375 60 60 60
10.5441 8.4464 2.9112 60 60 60
1.4548 0.0599 1.5121 60 60 60
0.9594 -5.3842 -0.1420 60 60 60
-0.8192 8.3527 -0.0729 60 60 60
9.2847 8.0490 0.1016 60 60 60
0.2477 0.0179 1.5455 60 60 60
2.0616 3.3116 0.0048 60 60 60
12.9322 8.5838 3.3772 60 60 60
0.3544 0.4095 1.5070 60 60 60
4.5790 -1.5753 -0.0463 60 60 60
0.9558 0.0004 1.8395 60 60 60
2.1037 7.9043 0.0923 60 60 60
-3.5189 -5.1352 0.4281 60 60 60
0.4582 -0.4186 1.5097 60 60 60
0.8986 0.0012 1.8382 60 60 60
-6.9071 -11.8154 3.4950 60 60 60
1.4324 -0.0281 1.4925 60 60 60
0.1701 0.4289 1.4833 60 60 60
-14.1351 4.3732 -0.0198 60 60 60
0.9568 0.0004 1.8396 60 60 60
0.9404 4.7064 0.0040 60 60 60
-3.9603 -11.4616 4.3903 60 60 60
1.4217 -0.0993 1.4960 60 60 60
-1.7928 3.1696 0.0134 60 60 60
0.9447 0.0005 1.8393 60 60 60
0.8948 0.0011 1.8381 60 60 60
5.1114 -4.3709 1.6335 60 60 60
-1.9770 -2.8212 -0.0416 60 60 60
1.4835 0.2250 1.4748 60 60 60
6.6154 -10.4696 3.7893 60 60 60
0.9468 0.0005 1.8394 60 60 60
2.6991 -6.8478 -0.1238 60 60 60
-5.1470 3.4781 -0.0381 60 60 60
-5.1500 4.7597 -0.0662 60 60 60
-4.1662 -4.8640 1.7319 60 60 60
0.9381 0.0007 1.8392 60 60 60
2.8802 -3.2464 -0.0862 60 60 60
-4.1115 2.8012 0.0001 60 60 60
-1.3942 -11.2785 3.2645 60 60 60
0.3672 0.3158 1.5174 60 60 60
3.3378 8.5859 2.7871 60 60 60
2.0113 3.8184 0.0048 60 60 60
-2.7168 2.7334 0.0069 60 60 60
-6.3807 2.3700 -0.0028 60 60 60
0.1443 -0.0109 1.5875 60 60 60
0.9774 0.0001 1.8400 60 60 60
0.9574 0.0003 1.8396 60 60 60
-20.4179 16.5157 8.0111 60 60 60
4.8017 2.0280 0.0242 60 60 60
0.4711 9.6046 3.7085 60 60 60
0.9317 0.0007 1.8390 60 60 60
3.4265 8.7490 2.5892 60 60 60
5.4036 8.0032 3.3760 60 60 60
3.6063 -4.2417 -0.1491 60 60 60
0.9702 0.0002 1.8399 60 60 60
-1.8465 -2.9516 -0.0498 60 60 60
6.8727 6.9557 0.0573 60 60 60
9.9484 8.3737 1.7264 60 60 60
1.3075 0.4242 1.4850 60 60 60
6.0349 -10.5826 2.9493 60 60 60
26.2295 -20.4801 5.1855 60 60 60
6.1828 -2.1475 -0.0735 60 60 60
-1.6321 -11.3098 2.4679 60 60 60
-2.1195 -5.7612 -0.0606 60 60 60
-3.1200 -2.9889 -0.0597 60 60 60
7.5943 -10.3763 2.9460 60 60 60
0.9868 4.1067 0.0088 60 60 60
3.6179 8.1554 0.1002 60 60 60
0.9539 0.0004 1.8395 60 60 60
-5.8774 -4.3643 0.4313 60 60 60
3.2981 -3.5830 -0.1060 60 60 60
-4.2510 6.3942 -0.0472 60 60 60
-5.9621 -3.8734 -0.1020 60 60 60
-16.4780 -6.8371 0.8803 60 60 60
24.5962 -25.6447 3.9377 60 60 60
0.9167 0.0009 1.8387 60 60 60
5.7115 1.3922 0.0226 60 60 60
2.6677 -8.4034 0.5259 60 60 60
-0.7595 4.3122 0.0046 60 60 60
7.0996 5.4125 -0.0047 60 60 60
-4.4412 -1.4269 -0.0598 60 60 60
1.3370 0.5194 1.4782 60 60 60
-0.5755 4.3545 0.0055 60 60 60
0.0329 4.1670 0.0021 60 60 60
-2.4509 -7.3073 -0.1260 60 60 60
0.9642 0.0002 1.8397 60 60 60
0.1743 -8.7872 0.3996 60 60 60
0.9376 0.0007 1.8392 60 60 60
0.2475 0.1436 1.5177 60 60 60
1.8244 -0.3796 1.3338 60 60 60
4.7305 2.8404 0.0231 60 60 60
0.8756 0.0014 1.8376 60 60 60
1.9817 3.3339 0.0121 60 60 60
4.3674 8.4327 2.3335 60 60 60
-1.2431 -3.8147 1.1037 60 60 60
-11.0930 7.6245 0.0855 60 60 60
0.2252 -0.4799 1.4705 60 60 60
1.0475 -11.2218 3.1168 60 60 60
1.3707 0.3956 1.5242 60 60 60
9.1137 8.3156 3.6752 60 60 60
0.9560 0.0004 1.8396 60 60 60
0.8910 0.0012 1.8380 60 60 60
-4.5602 4.1915 -0.0354 60 60 60
1.2625 9.4344 1.8386 60 60 60
0.4593 0.3678 1.5199 60 60 60
-5.1393 -11.5976 3.0045 60 60 60
0.9550 0.0004 1.8395 60 60 60
12.7743 8.5416 1.9936 60 60 60
5.7174 -20.6434 2.0570 60 60 60
0.9944 -3.8242 -0.1020 60 60 60
0.3005 -0.1932 1.5187 60 60 60
9.7596 -28.8703 7.0371 60 60 60
1.1500 -0.5246 1.4764 60 60 60
4.2038 2.0123 0.0320 60 60 60
5.1232 2.8967 0.0204 60 60 60
0.4748 -8.8335 -0.0464 60 60 60
-4.2433 3.5380 -0.0126 60 60 60
-7.1372 -11.7661 4.5346 60 60 60
-12.6939 -12.3132 3.2920 60 60 60
-13.0329 14.1110 2.5271 60 60 60
12.9848 8.5496 0.6066 60 60 60
0.9642 0.0003 1.8397 60 60 60
5.8276 7.8795 3.3768 60 60 60
1.4051 0.1045 1.4836 60 60 60
7.0172 -10.4676 1.2487 60 60 60
1.3031 9.4220 1.6176 60 60 60
-1.1857 -2.8585 -0.0447 60 60 60
26.7549 -21.9807 2.1777 60 60 60
1.2023 6.4734 -0.0260 60 60 60
5.2518 0.1213 0.0141 60 60 60
0.6445 0.5217 1.4961 60 60 60
7.0408 -10.4472 2.3768 60 60 60
8.8238 -10.2744 1.4482 60 60 60
0.8940 0.0012 1.8381 60 60 60
1.8925 -3.1396 -0.0842 60 60 60
0.3609 -0.3781 1.5046 60 60 60
4.8068 -4.3171 0.9639 60 60 60
0.9501 0.0005 1.8394 60 60 60
3.7181 -17.6332 1.2490 60 60 60
0.0539 0.3063 1.4901 60 60 60
0.3181 -0.4166 1.4981 60 60 60
10.4156 8.3916 0.2262 60 60 60
2.7213 8.9761 2.6267 60 60 60
-0.4385 3.7975 0.0125 60 60 60
5.5435 0.3764 0.0142 60 60 60
-2.7931 -2.8441 -0.0565 60 60 60
-2.4569 -11.4964 0.2803 60 60 60
7.4046 -4.3683 0.2286 60 60 60
-2.6922 10.9845 3.6757 60 60 60
0.1385 -3.1584 -0.0567 60 60 60
1.3951 0.1420 1.4840 60 60 60
-8.3603 -1.0155 1.6115 60 60 60
-12.6089 3.4878 -0.1469 60 60 60
-1.7961 13.4268 4.6005 60 60 60
0.9365 0.0007 1.8391 60 60 60
-0.8259 -3.8932 -0.0988 60 60 60
0.9561 0.0004 1.8396 60 60 60
0.0222 9.7569 3.0624 60 60 60
4.1493 -4.7067 -0.1264 60 60 60
0.9471 0.0005 1.8394 60 60 60
5.4539 1.0340 0.0158 60 60 60
0.9276 0.0008 1.8389 60 60 60
-4.3509 11.5676 4.2227 60 60 60
0.8775 0.0013 1.8376 60 60 60
-7.0959 -3.6992 -0.0968 60 60 60
0.3777 -8.8448 0.1689 60 60 60
-8.1712 -11.8761 4.3392 60 60 60
7.8598 -10.3615 0.6165 60 60 60
0.0055 -0.4537 1.4535 60 60 60
2.4635 -3.8547 -0.1136 60 60 60
0.9661 0.0002 1.8398 60 60 60
1.0135 9.5472 3.4383 60 60 60
0.1258 -0.3290 1.4907 60 60 60
0.8617 -4.0956 -0.1132 60 60 60
-1.2712 4.1374 0.0066 60 60 60
0.0361 0.3066 1.4840 60 60 60
0.8829 0.0012 1.8378 60 60 60
1.5661 0.0002 1.5323 60 60 60
1.4980 3.9855 0.0122 60 60 60
-8.8766 1.8051 -0.0498 60 60 60
4.6256 -8.0578 -0.0347 60 60 60
-6.8890 12.2108 0.8853 60 60 60
2.4582 9.0483 0.7084 60 60 60
2.4435 9.0553 1.3546 60 60 60
-3.0521 -11.5302 0.2780 60 60 60
-11.2587 -12.2268 3.1746 60 60 60
0.9433 0.0005 1.8393 60 60 60
2.5448 9.0204 1.3506 60 60 60
-3.3306 -4.0217 -0.0881 60 60 60
-0.7081 10.2490 3.9118 60 60 60
-6.0940 -11.7380 3.4108 60 60 60
0.9428 0.0005 1.8393 60 60 60
-12.8791 6.7644 -0.0206 60 60 60
0.9582 0.0004 1.8396 60 60 60
0.9333 0.0007 1.8391 60 60 60
6.5104 7.9161 2.2755 60 60 60
-80.9608 13.4556 -0.1438 60 60 60
8.2695 9.2679 0.1263 60 60 60
0.9422 0.0006 1.8393 60 60 60
-25.3864 18.1655 7.6397 60 60 60
-6.6867 -0.6575 0.9372 60 60 60
2.8356 -2.9802 -0.0701 60 60 60
3.4636 -3.8717 -0.1252 60 60 60
-1.8532 -3.4510 0.1235 60 60 60
1.4190 0.0467 1.5158 60 60 60
1.3906 -8.6603 0.1565 60 60 60
-0.3775 3.1395 0.0102 60 60 60
26.7875 -18.7964 5.0822 60 60 60
2.5992 3.2137 0.0152 60 60 60
-4.4754 10.0414 -0.0245 60 60 60
0.2100 7.4135 -0.0517 60 60 60
0.6867 -4.6150 1.0770 60 60 60
7.2180 -4.4424 1.5363 60 60 60
-3.9979 4.6997 -0.0309 60 60 60
1.6306 9.1391 2.8946 60 60 60
9.9135 8.6415 1.7322 60 60 60
0.3102 -3.3807 -0.0693 60 60 60
6.0296 -2.7098 -0.0947 60 60 60
6.3693 -10.5055 2.6644 60 60 60
-4.7270 -4.5440 2.2563 60 60 60
4.9472 0.5756 0.0141 60 60 60
24.9392 -24.5712 3.8741 60 60 60
5.2728 -0.3976 -0.0009 60 60 60
14.1814 -9.3385 0.8260 60 60 60
0.9490 0.0005 1.8394 60 60 60
5.9222 -0.4597 -0.0011 60 60 60
1.3077 0.3534 1.5104 60 60 60
1.5017 0.4170 1.4647 60 60 60
4.1191 3.1933 0.0132 60 60 60
0.4336 -3.1986 -0.0643 60 60 60
-1.3815 -9.1735 0.1393 60 60 60
-10.1180 13.1509 2.3901 60 60 60
-5.7799 1.7951 0.0059 60 60 60
4.4554 -3.9087 -0.1445 60 60 60
0.0902 -4.4185 -0.1340 60 60 60
0.9438 0.0005 1.8393 60 60 60
-0.2130 3.3989 0.0055 60 60 60
0.9400 0.0006 1.8392 60 60 60
-10.3937 3.6159 -0.1400 60 60 60
0.3068 -0.3845 1.5024 60 60 60
9.9226 8.5288 2.0211 60 60 60
5.0016 -10.7717 2.4285 60 60 60
4.3694 -4.2332 0.0814 60 60 60
-6.3707 -4.5457 3.3814 60 60 60
-0.0070 0.1127 1.5126 60 60 60
0.9381 0.0007 1.8392 60 60 60
-12.7472 -12.2904 5.9274 60 60 60
-5.7767 6.7988 -0.0836 60 60 60
1.5742 -0.3067 1.4416 60 60 60
0.9344 0.0007 1.8391 60 60 60
5.5388 -7.8954 0.0923 60 60 60
-2.0013 10.4803 2.2621 60 60 60
0.9417 0.0005 1.8392 60 60 60
2.5195 9.0401 1.7804 60 60 60
-7.5367 2.1171 -0.0318 60 60 60
-27.3029 -8.3744 5.8827 60 60 60
-4.4655 -7.9011 -0.1914 60 60 60
-52.7336 26.9119 2.9983 60 60 60
-10.0745 7.3913 1.4424 60 60 60
0.9523 0.0004 1.8395 60 60 60
0.1739 -3.3603 -0.0649 60 60 60
0.9585 0.0003 1.8396 60 60 60
6.5528 -4.6135 -0.1820 60 60 60
-7.6362 1.6777 -0.0286 60 60 60
27.4168 -16.7764 6.4575 60 60 60
-0.4996 -11.3450 2.1400 60 60 60
3.4932 3.3971 0.0257 60 60 60
0.9295 0.0008 1.8390 60 60 60
2.0961 9.1634 0.7186 60 60 60
0.8931 0.0012 1.8380 60 60 60
-4.4968 -11.5209 3.5514 60 60 60
-7.1797 12.1926 2.5933 60 60 60
-4.3119 -11.5393 2.0490 60 60 60
0.7643 3.0884 0.0173 60 60 60
-2.6044 -5.3372 -0.1619 60 60 60
8.2441 7.3187 0.0455 60 60 60
2.8583 -8.3784 0.3093 60 60 60
-0.2911 -3.2600 -0.0568 60 60 60
-29.8537 18.6930 8.4199 60 60 60
1.0747 0.5267 1.5044 60 60 60
2.0673 4.0638 0.0085 60 60 60
-1.6791 3.5929 0.0078 60 60 60
2.6287 -6.9027 -0.1298 60 60 60
-2.9788 9.1882 -0.0699 60 60 60
-2.2378 -8.1840 -0.1120 60 60 60
0.9092 0.0010 1.8385 60 60 60
0.9574 0.0004 1.8396 60 60 60
2.9631 -3.5144 -0.1033 60 60 60
3.3513 8.7635 2.1670 60 60 60
0.9083 0.0010 1.8384 60 60 60
0.9352 0.0007 1.8391 60 60 60
0.9650 0.4247 1.5845 60 60 60
-1.9219 4.7018 -0.0059 60 60 60
3.3479 2.8628 0.0170 60 60 60
0.9121 0.0009 1.8385 60 60 60
4.2325 -25.3033 2.2137 60 60 60
0.9482 0.0005 1.8394 60 60 60
2.9096 8.9088 2.4019 60 60 60
-5.8842 11.7560 1.8749 60 60 60
0.3800 -0.2437 1.5280 60 60 60
0.9181 0.0009 1.8387 60 60 60
-0.6158 -2.9354 -0.0456 60 60 60
2.7107 -11.9344 0.5967 60 60 60
-5.5383 -3.0238 -0.0780 60 60 60
-0.6418 6.6897 -0.0336 60 60 60
8.5633 -4.5209 -0.0017 60 60 60
1.4777 -4.5925 -0.1416 60 60 60
0.1933 -3.1682 -0.0582 60 60 60
0.9303 0.0007 1.8390 60 60 60
2.0704 9.1600 0.2805 60 60 60
0.9243 0.0008 1.8389 60 60 60
1.0309 -0.4183 1.5835 60 60 60
0.9824 0.4175 1.5847 60 60 60
-3.4591 -2.4903 -0.0464 60 60 60
1.4634 -0.4079 1.5319 60 60 60
-0.2984 9.9823 0.9898 60 60 60
0.6017 -4.6766 1.8409 60 60 60
-16.2104 15.0330 5.3616 60 60 60
1.6457 -11.1768 3.6167 60 60 60
1.9467 -3.8082 -0.1035 60 60 60
-2.6965 6.1659 -0.0177 60 60 60
-0.6870 -3.1195 -0.0509 60 60 60
0.3486 0.2818 1.5181 60 60 60
-1.3814 2.8771 0.0102 60 60 60
2.0452 9.1725 0.7208 60 60 60
-15.3829 14.8802 6.2977 60 60 60
0.9514 0.0005 1.8395 60 60 60
0.8688 0.0014 1.8374 60 60 60
0.9072 0.0011 1.8384 60 60 60
-8.3551 -3.4000 0.6397 60 60 60
-9.3873 12.9103 2.7409 60 60 60
0.1428 0.0073 1.5870 60 60 60
0.9593 0.0004 1.8396 60 60 60
5.8853 0.1057 0.0191 60 60 60
0.8714 3.4735 0.0097 60 60 60
0.1155 -0.0208 1.5996 60 60 60
-3.4549 -4.6171 0.9855 60 60 60
-10.0713 -12.0402 5.0095 60 60 60
-1.2308 -3.7872 1.0043 60 60 60
0.8718 0.0014 1.8375 60 60 60
-10.4321 13.1424 3.6259 60 60 60
-5.1115 5.9103 -0.0655 60 60 60
4.8643 -2.4707 -0.0825 60 60 60
0.4637 -0.1151 1.5895 60 60 60
0.0222 -0.1563 1.4964 60 60 60
-2.4550 -3.2285 0.1780 60 60 60
1.6053 -0.0939 1.4505 60 60 60
-17.4783 15.4089 2.1772 60 60 60
0.9273 0.0008 1.8389 60 60 60
-5.7611 -3.6612 0.8890 60 60 60
5.2000 7.1248 0.0732 60 60 60
-1.7504 -6.2285 -0.1623 60 60 60
0.9024 0.0011 1.8383 60 60 60
-24.0410 6.1892 0.0126 60 60 60
1.0078 -0.4254 1.5847 60 60 60
2.5589 -4.1504 -0.1326 60 60 60
-0.2532 10.0499 1.9271 60 60 60
-5.3717 1.0403 -0.0033 60 60 60
-10.6348 1.5883 -0.0889 60 60 60
0.9539 0.0004 1.8395 60 60 60
1.9519 2.9336 0.0170 60 60 60
0.3486 -0.4886 1.4874 60 60 60
1.3327 0.2635 1.4919 60 60 60
2.1930 3.4644 0.0110 60 60 60
-14.2037 4.2056 -0.0203 60 60 60
-9.5102 10.4153 -0.0637 60 60 60
-3.4222 4.3395 -0.0100 60 60 60
5.7892 7.8526 0.9782 60 60 60
2.6942 -3.1091 -0.0801 60 60 60
-10.6108 1.7895 -0.0907 60 60 60
-1.1692 8.3338 -0.0707 60 60 60
0.2745 -0.0786 1.5369 60 60 60
-0.9390 10.2447 0.9867 60 60 60
-19.0766 15.9532 5.8252 60 60 60
-6.0733 -4.6195 1.7577 60 60 60
0.2452 -6.3404 -0.1377 60 60 60
0.8980 0.0012 1.8382 60 60 60
2.2786 2.9676 0.0094 60 60 60
-5.7261 -2.5713 -0.0662 60 60 60
0.9425 0.0005 1.8393 60 60 60
6.9459 -10.4392 2.0968 60 60 60
-5.9960 -3.9013 0.4673 60 60 60
-17.9509 4.5557 0.0029 60 60 60
0.2705 9.6359 0.3142 60 60 60
1.7076 5.2572 0.0044 60 60 60
-1.3998 -34.7252 8.4198 60 60 60
-1.8250 5.7685 -0.0032 60 60 60
-80.5186 11.9662 1.7899 60 60 60
-7.3979 -11.9367 0.1486 60 60 60
5.7958 1.0463 0.0186 60 60 60
-13.7206 14.2758 2.0833 60 60 60
0.9535 -0.4475 1.5668 60 60 60
-22.1231 16.9148 2.2890 60 60 60
0.8726 0.0013 1.8375 60 60 60
6.2121 -2.0506 -0.0724 60 60 60
0.3139 -0.2363 1.5179 60 60 60
1.8083 0.3168 1.3457 60 60 60
0.9568 0.0004 1.8396 60 60 60
-1.7220 -3.7866 -0.0884 60 60 60
5.9224 7.8569 2.0584 60 60 60
3.2140 -4.3927 0.9011 60 60 60
5.4462 -1.7564 -0.0551 60 60 60
-0.2644 10.0398 1.6925 60 60 60
0.9466 0.0005 1.8393 60 60 60
7.1688 -10.4197 1.8064 60 60 60
-33.7345 -12.0294 0.8393 60 60 60
0.5217 0.4079 1.5102 60 60 60
0.4791 0.0119 1.6159 60 60 60
0.5193 0.4054 1.5103 60 60 60
-0.4872 -4.0192 0.4580 60 60 60
2.7074 8.6672 0.0969 60 60 60
5.7990 7.8458 1.1946 60 60 60
-7.4703 2.2543 -0.0268 60 60 60
2.7371 4.7653 0.0192 60 60 60
1.0256 -11.1029 0.5062 60 60 60
-21.4904 16.7429 4.2354 60 60 60
-2.2285 2.8197 0.0091 60 60 60
-0.7006 4.0152 0.0067 60 60 60
-2.6305 -3.0244 0.0658 60 60 60
0.9118 0.0010 1.8385 60 60 60
1.0641 -4.3614 -0.1292 60 60 60
7.7022 -4.3407 0.1760 60 60 60
5.4839 -4.3332 1.7631 60 60 60
0.9026 0.0011 1.8383 60 60 60
-62.9231 17.4585 0.2096 60 60 60
4.7482 7.5188 0.0724 60 60 60
1.4464 9.3926 3.1539 60 60 60
-6.2565 -9.6812 0.1681 60 60 60
5.2733 -0.3457 0.0005 60 60 60
9.4752 9.4250 2.0587 60 60 60
1.7421 -4.4611 0.3658 60 60 60
0.8008 3.0813 0.0197 60 60 60
3.4585 -4.3159 0.2585 60 60 60
4.5210 -8.0785 -0.0251 60 60 60
-2.6999 9.7962 0.0719 60 60 60
0.9928 3.2476 0.0092 60 60 60
3.7704 5.9408 -0.0261 60 60 60
-8.7655 -11.9315 4.7938 60 60 60
13.0234 8.5584 0.9527 60 60 60
-0.6005 10.0642 3.1373 60 60 60
0.3723 3.6987 0.0044 60 60 60
3.6771 3.2250 0.0221 60 60 60
-2.3952 5.5722 -0.0063 60 60 60
6.4265 -3.3901 -0.1457 60 60 60
-0.6599 3.4889 0.0097 60 60 60
6.6252 6.3943 -0.0461 60 60 60
-3.7440 -3.2165 0.1468 60 60 60
1.3862 9.3772 0.2882 60 60 60
-9.8894 13.0809 5.1916 60 60 60
0.6323 -8.7611 0.3867 60 60 60
-0.1432 -11.2108 0.5421 60 60 60
0.8710 0.0014 1.8375 60 60 60
0.8769 0.0013 1.8376 60 60 60
1.2804 0.4604 1.4825 60 60 60
0.9189 0.0009 1.8387 60 60 60
0.5809 6.0686 -0.0196 60 60 60
0.9620 0.0003 1.8397 60 60 60
1.2296 -0.4652 1.4953 60 60 60
0.9373 0.0007 1.8392 60 60 60
3.4403 -19.0578 3.0182 60 60 60
-7.9430 4.3130 -0.0624 60 60 60
7.4004 -7.5273 0.3527 60 60 60
0.9411 0.0005 1.8392 60 60 60
0.8085 -4.5269 0.5310 60 60 60
2.0615 7.7124 -0.0554 60 60 60
-7.6118 -1.5015 -0.0233 60 60 60
1.5098 -0.2267 1.4673 60 60 60
0.3027 0.1596 1.5205 60 60 60
1.3124 -0.3564 1.4840 60 60 60
4.4811 8.4138 3.4124 60 60 60
0.9156 0.0009 1.8386 60 60 60
7.1453 -7.5815 0.3789 60 60 60
6.0037 -10.5869 1.8501 60 60 60
-10.3350 14.9165 4.6054 60 60 60
5.1474 8.1603 0.7957 60 60 60
3.3724 -3.5120 -0.1031 60 60 60
-1.8877 -3.5922 1.6398 60 60 60
3.2651 3.9811 0.0264 60 60 60
0.9021 0.0011 1.8383 60 60 60
-5.9209 11.8789 0.9131 60 60 60
0.4304 0.4289 1.5076 60 60 60
1.0071 -0.4453 1.5739 60 60 60
-23.9388 17.5623 6.6262 60 60 60
-20.5798 -19.0311 5.4699 60 60 60
0.4707 7.3941 -0.0536 60 60 60
6.4928 -10.5583 0.7167 60 60 60
3.4885 4.2263 0.0287 60 60 60
4.6208 -12.0788 1.9305 60 60 60
0.9604 0.0003 1.8396 60 60 60
-7.2392 -0.1376 1.0704 60 60 60
-6.1763 -2.7952 0.1753 60 60 60
2.0368 -3.0342 -0.0631 60 60 60
0.4809 9.5737 0.9970 60 60 60
2.9229 3.2725 0.0070 60 60 60
5.5399 0.1552 0.0197 60 60 60
1.4092 -0.0204 1.4896 60 60 60
-8.9098 -0.7334 1.1411 60 60 60
8.0221 8.1923 3.5692 60 60 60
-2.6424 -5.3284 -0.1646 60 60 60
-6.2623 -2.8321 0.7134 60 60 60
0.9558 0.0004 1.8395 60 60 60
1.1441 9.3198 0.0856 60 60 60
0.8745 0.0013 1.8376 60 60 60
5.8124 2.3513 0.0249 60 60 60
-29.8041 18.9078 8.4280 60 60 60
4.4728 8.3868 0.6200 60 60 60
0.1207 -8.8027 0.3988 60 60 60
-8.6432 -11.9253 4.7746 60 60 60
0.0627 0.3679 1.4838 60 60 60
1.5667 9.3657 3.3689 60 60 60
0.8756 0.0014 1.8376 60 60 60
6.2432 3.7733 0.0264 60 60 60
0.9552 0.0004 1.8395 60 60 60
5.4179 7.9651 1.0021 60 60 60
6.4837 -3.2040 -0.1362 60 60 60
1.0190 -8.1440 -0.1210 60 60 60
2.8152 4.3052 0.0222 60 60 60
0.9612 0.0003 1.8397 60 60 60
9.8748 9.2207 1.7441 60 60 60
3.6814 -3.1797 -0.0903 60 60 60
0.1015 -3.8292 -0.0957 60 60 60
0.9586 9.4520 3.4250 60 60 60
-2.1197 10.6345 0.9815 60 60 60
-1.7351 4.3299 0.0012 60 60 60
2.1237 4.6979 0.0093 60 60 60
-3.4122 10.9544 2.3495 60 60 60
0.9522 0.0005 1.8395 60 60 60
6.4433 -4.3453 1.5722 60 60 60
-10.6430 4.6285 2.9729 60 60 60
-2.2052 -9.2177 0.3603 60 60 60
-4.2435 11.5501 4.5161 60 60 60
0.2794 9.6484 1.4499 60 60 60
5.2973 -3.3478 -0.1230 60 60 60
-7.5277 -2.1462 -0.0428 60 60 60
-1.9859 -11.3407 2.4894 60 60 60
-4.9331 -2.9531 0.3953 60 60 60
1.3363 0.2436 1.4958 60 60 60
3.8008 -4.0579 -0.1432 60 60 60
-26.7012 18.3995 8.6744 60 60 60
0.9579 0.0004 1.8396 60 60 60
0.9040 0.0011 1.8383 60 60 60
2.9583 5.1250 0.0128 60 60 60
-1.1198 4.1983 0.0053 60 60 60
1.2181 5.0312 -0.0076 60 60 60
0.8772 0.0013 1.8376 60 60 60
-6.5400 -2.4530 -0.0579 60 60 60
0.9476 0.0005 1.8394 60 60 60
-4.5912 1.7816 0.0093 60 60 60
-7.5422 12.4254 0.8658 60 60 60
-4.7545 11.2604 0.3655 60 60 60
0.9417 0.0006 1.8392 60 60 60
2.5110 -4.3742 0.0436 60 60 60
-1.3832 -3.2905 -0.0615 60 60 60
2.0020 -3.5320 -0.0958 60 60 60
7.9164 -10.3699 2.3648 60 60 60
1.4614 0.0114 1.5282 60 60 60
-11.0913 -6.5924 -0.1954 60 60 60
5.0623 -4.6126 -0.0086 60 60 60
-1.0962 -11.3023 2.1686 60 60 60
-1.9579 -9.1805 0.3672 60 60 60
3.3850 6.2203 -0.0323 60 60 60
-2.1632 -4.9666 -0.1475 60 60 60
5.1784 -10.6551 2.6853 60 60 60
-11.3489 12.2649 0.0090 60 60 60
0.9452 0.0005 1.8393 60 60 60
-23.4116 17.3750 5.8229 60 60 60
3.3771 8.7777 3.4599 60 60 60
0.3294 0.1012 1.5396 60 60 60
0.9918 -0.4355 1.5680 60 60 60
-12.6239 2.4264 -0.1094 60 60 60
0.8988 0.0012 1.8382 60 60 60
0.8902 0.0011 1.8380 60 60 60
-2.5581 -3.1821 0.2888 60 60 60
2.0271 9.1681 1.3716 60 60 60
-11.0228 3.9001 0.0445 60 60 60
-4.9280 8.4805 -0.0487 60 60 60
0.0289 -0.2699 1.4887 60 60 60
0.9784 0.4162 1.5726 60 60 60
25.8754 -21.6839 4.4947 60 60 60
25.6792 -22.2955 3.7486 60 60 60
-5.9483 -1.7031 -0.0378 60 60 60
0.1141 9.7042 2.5916 60 60 60
-6.7239 -11.7197 4.1356 60 60 60
0.5074 9.5579 1.4440 60 60 60
-0.8474 3.4160 0.0108 60 60 60
-27.7682 -19.8001 9.7336 60 60 60
-0.9398 -3.8503 -0.0969 60 60 60
7.3014 8.1155 3.2571 60 60 60
10.5603 8.2480 3.1946 60 60 60
-23.8972 6.4618 0.0152 60 60 60
24.3681 -26.3196 3.9789 60 60 60
-14.9942 -5.1117 -0.1766 60 60 60
2.5158 9.0554 3.5150 60 60 60
0.1871 -0.2091 1.5087 60 60 60
-12.2798 17.2317 4.5389 60 60 60
-9.5855 13.0698 1.5818 60 60 60
-3.9876 -15.1550 0.5382 60 60 60
1.9362 9.1448 0.0694 60 60 60
-7.1158 -0.7875 1.0750 60 60 60
4.1548 8.5058 2.1302 60 60 60
-11.6682 13.6666 5.0956 60 60 60
-7.6666 -11.8082 4.9714 60 60 60
-10.9512 13.3096 2.0137 60 60 60
-4.8421 1.0181 -0.0015 60 60 60
0.9184 0.0008 1.8387 60 60 60
1.5016 9.3708 2.2660 60 60 60
1.1600 0.4753 1.5036 60 60 60
6.0476 -7.7796 0.4877 60 60 60
-0.4614 -8.8985 0.3987 60 60 60
0.9520 0.0005 1.8395 60 60 60
0.1024 -0.1477 1.5032 60 60 60
-34.4151 -15.8409 4.3260 60 60 60
12.6375 8.5639 3.6983 60 60 60
6.9469 -4.3551 1.5490 60 60 60
1.6917 0.4930 1.3650 60 60 60
-1.4381 2.8457 0.0071 60 60 60
1.3604 0.2478 1.4986 60 60 60
0.5073 3.2865 0.0134 60 60 60
6.6338 -10.4647 1.8256 60 60 60
0.8978 0.0011 1.8382 60 60 60
-1.2713 4.9524 -0.0083 60 60 60
-2.7647 -13.8262 0.9708 60 60 60
0.8668 3.4493 0.0098 60 60 60
-5.2815 1.3943 0.0000 60 60 60
2.4439 5.4325 0.0018 60 60 60
-7.4316 -11.8650 3.8963 60 60 60
3.7708 -3.0582 -0.0826 60 60 60
0.4179 -5.1458 -0.1720 60 60 60
5.0644 3.7228 0.0255 60 60 60
0.9474 0.0005 1.8394 60 60 60
6.1642 -2.2492 -0.0789 60 60 60
9.5457 8.3526 3.7178 60 60 60
4.6434 7.0351 -0.0284 60 60 60
1.4765 3.9988 0.0091 60 60 60
-3.3650 5.1026 -0.0170 60 60 60
0.3992 -0.4877 1.4835 60 60 60
-6.1618 0.1470 -0.0252 60 60 60
-6.5361 5.8602 -0.0364 60 60 60
-3.3282 -4.6485 1.1386 60 60 60
-19.3985 16.0028 1.6181 60 60 60
5.0210 -10.6270 0.2868 60 60 60
6.0018 7.8582 2.2753 60 60 60
-13.3974 19.0991 4.2364 60 60 60
0.9539 0.0004 1.8395 60 60 60
-5.8469 8.0976 -0.0601 60 60 60
0.9612 0.0003 1.8397 60 60 60
7.2630 -10.4274 2.0893 60 60 60
12.0848 8.5335 0.3520 60 60 60
-4.5447 6.2252 -0.0495 60 60 60
2.4411 -4.2060 -0.1304 60 60 60
0.8986 0.0011 1.8382 60 60 60
0.2511 0.1264 1.5210 60 60 60
-6.7772 -0.9932 -0.0166 60 60 60
4.0386 8.5311 1.9215 60 60 60
-0.7027 10.1767 1.7085 60 60 60
-2.5221 10.6504 2.2939 60 60 60
-4.0142 -9.5532 0.2768 60 60 60
-2.0163 -11.3301 3.5930 60 60 60
1.3252 0.3281 1.5105 60 60 60
6.0095 -4.3586 1.2777 60 60 60
4.1238 -5.4321 0.0093 60 60 60
5.8466 0.6647 0.0203 60 60 60
1.2869 -8.6618 0.3718 60 60 60
25.0259 -27.5063 -0.1912 60 60 60
0.8780 0.0013 1.8377 60 60 60
-5.5675 -4.3529 2.4930 60 60 60
-5.9769 -4.4719 3.5088 60 60 60
-4.1920 -4.3875 1.1177 60 60 60
-0.9410 -11.3879 1.0869 60 60 60
-0.3679 -3.2361 -0.0552 60 60 60
-2.2902 -3.3988 0.0427 60 60 60
-1.4059 10.0620 0.7732 60 60 60
-18.8664 15.8787 3.9900 60 60 60
0.9845 0.4178 1.5703 60 60 60
-1.4529 9.7722 0.0868 60 60 60
-8.5812 8.4168 -0.0809 60 60 60
1.9070 4.7666 0.0152 60 60 60
3.6348 6.9198 -0.0505 60 60 60
-9.8909 3.9349 -3.0100 60 60 60
0.9593 0.0003 1.8396 60 60 60
2.0947 9.1716 1.5850 60 60 60
-15.0939 -3.2669 -0.1060 60 60 60
0.3265 -0.1047 1.5405 60 60 60
0.9317 0.0007 1.8390 60 60 60
-0.1586 10.2110 3.8642 60 60 60
2.4567 -4.4996 1.6450 60 60 60
8.0187 -4.3071 0.5208 60 60 60
0.9474 0.0005 1.8394 60 60 60
0.8685 0.0014 1.8374 60 60 60
-1.8477 7.3100 -0.0518 60 60 60
0.8723 0.0013 1.8375 60 60 60
-3.5965 -11.4471 3.4597 60 60 60
6.6889 -4.3285 1.3925 60 60 60
-3.7493 -7.0130 -0.1612 60 60 60
1.3698 9.4030 1.8337 60 60 60
0.9617 0.0003 1.8397 60 60 60
4.0367 8.4982 0.2139 60 60 60
0.0338 -0.2518 1.4924 60 60 60
0.9154 0.0009 1.8386 60 60 60
-12.6919 -12.3260 3.7225 60 60 60
-6.6533 -1.8773 -0.0366 60 60 60
0.8780 0.0013 1.8377 60 60 60
1.5145 0.3522 1.4530 60 60 60
-1.8991 -3.2624 -0.0603 60 60 60
-13.7831 14.3063 1.6040 60 60 60
-8.3772 -11.9561 3.2980 60 60 60
1.1918 -0.5103 1.4883 60 60 60
-23.5843 6.9853 0.0214 60 60 60
-0.7407 4.6691 0.0019 60 60 60
-5.7890 -3.6374 1.6047 60 60 60
0.9482 0.0005 1.8394 60 60 60
-0.2827 -4.1653 0.9623 60 60 60
-13.1046 6.3824 -0.0179 60 60 60
0.2262 -4.7732 -0.1560 60 60 60
-22.2520 -4.1740 1.2502 60 60 60
0.7023 9.3591 2.7560 60 60 60
-9.0142 -12.0207 2.9937 60 60 60
3.9194 3.8330 0.0307 60 60 60
24.7962 -24.9730 4.7103 60 60 60
-2.1235 -3.4871 -0.0714 60 60 60
0.9232 0.0008 1.8389 60 60 60
-78.0582 21.2211 5.5440 60 60 60
4.8526 1.9077 0.0244 60 60 60
9.8590 9.4007 2.0525 60 60 60
7.7696 -7.4101 0.5564 60 60 60
0.2385 -0.3796 1.4995 60 60 60
-0.1528 9.8786 0.2887 60 60 60
1.2145 0.5235 1.4807 60 60 60
0.9463 0.0005 1.8393 60 60 60
11.7297 8.5750 3.9534 60 60 60
5.5459 0.2941 0.0152 60 60 60
-0.6918 3.0201 0.0114 60 60 60
-1.4012 10.3246 2.9716 60 60 60
0.9444 0.0006 1.8393 60 60 60
2.7579 -3.0507 -0.0748 60 60 60
0.9498 0.0005 1.8394 60 60 60
4.4464 -3.2355 -0.1081 60 60 60
0.7671 -3.2069 -0.0706 60 60 60
-1.9881 -3.5992 1.8559 60 60 60
0.2916 5.1762 -0.0094 60 60 60
0.1422 -0.0295 1.5869 60 60 60
5.7243 3.5906 0.0232 60 60 60
0.9631 0.0003 1.8397 60 60 60
5.1150 -2.7649 -0.0953 60 60 60
-9.7274 10.2715 -0.0630 60 60 60
0.2938 3.2774 0.0104 60 60 60
-4.1646 -11.5003 3.5176 60 60 60
-7.2184 -0.1855 1.0721 60 60 60
5.4049 -10.6461 0.7940 60 60 60
1.3732 0.4320 1.5317 60 60 60
10.1815 -5.2377 1.6460 60 60 60
0.3886 0.2281 1.5292 60 60 60
0.9438 0.0006 1.8393 60 60 60
-3.3802 -5.0780 0.1258 60 60 60
2.0958 3.5160 0.0095 60 60 60
-0.8323 6.0459 -0.0205 60 60 60
4.4903 4.4184 0.0255 60 60 60
0.8710 0.0014 1.8375 60 60 60
-7.1512 -11.8857 0.5029 60 60 60
-18.6699 15.8105 5.7581 60 60 60
4.3079 -4.2532 0.2298 60 60 60
-3.1393 -11.4578 1.4280 60 60 60
3.2692 -4.3277 0.4170 60 60 60
-7.2948 3.0400 -0.0517 60 60 60
-1.4937 4.0355 0.0088 60 60 60
-8.1322 -12.0385 2.5740 60 60 60
-8.2194 -3.3018 0.1966 60 60 60
0.8799 0.0013 1.8377 60 60 60
-7.8142 0.8381 -0.0367 60 60 60
7.1272 -7.5665 0.1472 60 60 60
2.9483 -3.5361 -0.1076 60 60 60
-3.7026 -3.0352 0.1909 60 60 60
-0.2886 -6.6410 -0.0580 60 60 60
26.7708 -18.7746 5.8313 60 60 60
5.6002 -4.3402 1.7598 60 60 60
25.7610 -21.7854 6.8383 60 60 60
-6.6860 -2.8470 0.2689 60 60 60
-4.3982 -11.5525 2.0529 60 60 60
-6.4089 -9.7785 -0.1454 60 60 60
2.3359 -11.1023 3.0537 60 60 60
-3.2187 10.9125 2.8857 60 60 60
-3.3601 11.0289 1.2443 60 60 60
1.6167 -4.5808 1.7943 60 60 60
11.3786 7.1726 0.1777 60 60 60
4.2210 -5.8861 0.2248 60 60 60
0.8699 0.0014 1.8374 60 60 60
-6.1575 -0.2597 -0.0261 60 60 60
-3.4725 -11.3996 4.3217 60 60 60
1.0611 5.9491 -0.0188 60 60 60
6.2861 7.8896 2.2752 60 60 60
1.4558 0.0147 1.5311 60 60 60
13.7927 8.1590 0.1891 60 60 60
4.8826 -10.6318 0.2985 60 60 60
0.9083 0.0010 1.8384 60 60 60
-4.3281 4.4132 -0.0328 60 60 60
-1.1279 -4.1276 -0.1168 60 60 60
-3.6743 -4.5813 1.1280 60 60 60
-5.0259 3.7835 -0.0600 60 60 60
1.3767 5.3802 -0.0053 60 60 60
7.8117 -10.3804 1.4944 60 60 60
-4.4249 2.1803 0.0091 60 60 60
-1.7082 2.9263 0.0100 60 60 60
-18.2040 4.0362 -0.0054 60 60 60
5.9221 -0.6097 -0.0062 60 60 60
1.8874 -11.1045 1.2445 60 60 60
0.4442 0.4756 1.4959 60 60 60
10.0621 -5.2300 2.8818 60 60 60
0.1801 -0.0942 1.5155 60 60 60
1.8434 -0.3297 1.3322 60 60 60
-2.8182 -7.3156 -0.1522 60 60 60
0.2932 -0.3830 1.4977 60 60 60
1.5391 -0.0852 1.4660 60 60 60
1.4004 -0.1500 1.4860 60 60 60
0.5266 -3.6158 -0.0872 60 60 60
5.6058 1.7640 0.0235 60 60 60
0.2723 9.6555 3.2651 60 60 60
0.5208 0.4446 1.5136 60 60 60
-0.4246 5.5819 -0.0166 60 60 60
-0.1109 3.4211 0.0056 60 60 60
2.2893 -32.9523 6.3275 60 60 60
-10.0493 -12.1156 3.8435 60 60 60
-4.5297 -7.8979 -0.1963 60 60 60
5.5625 -1.2813 -0.0479 60 60 60
6.5705 7.9059 1.1369 60 60 60
0.9981 0.4166 1.5677 60 60 60
-4.2538 -4.8472 -0.1325 60 60 60
0.5013 0.3839 1.5120 60 60 60
9.0114 9.3637 0.3214 60 60 60
3.8874 5.0315 0.0124 60 60 60
-0.5285 4.0576 0.0079 60 60 60
-6.7448 -9.6226 0.1499 60 60 60
0.2692 -15.9561 0.7089 60 60 60
-10.5386 2.1160 -0.0897 60 60 60
6.5484 -2.9827 -0.1260 60 60 60
1.2911 7.1370 -0.0417 60 60 60
0.9167 0.0009 1.8387 60 60 60
-12.6267 1.6280 -0.0899 60 60 60
6.2109 5.2906 -0.0084 60 60 60
0.0105 -0.4644 1.4532 60 60 60
0.9452 0.0005 1.8393 60 60 60
2.6285 -0.3037 1.0006 60 60 60
-0.0794 -3.3130 -0.0599 60 60 60
-9.9386 13.0952 2.3817 60 60 60
0.8813 0.0013 1.8377 60 60 60
-4.5549 -11.6013 0.5630 60 60 60
-6.1722 -0.1399 -0.0286 60 60 60
0.5531 -0.4943 1.4913 60 60 60
1.2676 -4.5354 0.9512 60 60 60
-8.1921 4.1784 -0.0906 60 60 60
0.9484 0.0005 1.8394 60 60 60
0.8923 3.6767 0.0102 60 60 60
0.9078 0.0010 1.8384 60 60 60
0.9514 0.0005 1.8395 60 60 60
-2.6354 -6.5664 -0.1478 60 60 60
0.5704 -4.5872 1.5205 60 60 60
-10.1279 13.2796 4.0129 60 60 60
0.9690 0.4290 1.5814 60 60 60
2.0000 9.2041 2.6704 60 60 60
-15.7890 2.2324 -0.1422 60 60 60
0.9577 0.0003 1.8396 60 60 60
-1.1514 8.9519 0.0124 60 60 60
0.9414 0.0005 1.8392 60 60 60
0.9501 0.0004 1.8394 60 60 60
-9.4999 -12.0612 3.7802 60 60 60
-1.9466 -2.8565 -0.0449 60 60 60
11.2890 7.3826 0.1780 60 60 60
-5.4266 -0.8947 -0.0159 60 60 60
-2.1120 12.8116 3.5664 60 60 60
0.9162 0.0009 1.8386 60 60 60
-12.8527 -3.3991 1.8029 60 60 60
3.2108 8.8057 2.3860 60 60 60
8.6958 -10.2775 3.5664 60 60 60
4.1935 8.4779 1.0642 60 60 60
0.0076 -11.4725 3.7439 60 60 60
6.3779 -10.5070 2.9437 60 60 60
1.4188 -0.0691 1.4820 60 60 60
0.9466 0.0005 1.8393 60 60 60
-9.2719 12.9846 1.5794 60 60 60
1.4710 -0.0095 1.5235 60 60 60
4.1736 4.1399 0.0234 60 60 60
-25.2790 18.1524 3.8460 60 60 60
2.6152 6.6605 -0.0393 60 60 60
14.4275 -12.6441 1.1847 60 60 60
-1.9424 12.7423 3.5458 60 60 60
4.6606 8.3277 1.2533 60 60 60
0.9582 0.0003 1.8396 60 60 60
3.0171 -4.2477 -0.1419 60 60 60
4.9773 8.2213 1.4525 60 60 60
0.9403 0.0005 1.8392 60 60 60
-3.8671 -4.5747 1.5842 60 60 60
0.0326 -0.3316 1.4820 60 60 60
0.9571 0.0004 1.8396 60 60 60
-3.2052 -4.6680 0.9953 60 60 60
-1.0854 5.9984 -0.0180 60 60 60
0.2105 0.0191 1.5696 60 60 60
5.9745 3.1215 0.0245 60 60 60
3.0445 4.1467 0.0251 60 60 60
3.8029 8.6187 2.1459 60 60 60
0.9617 0.0003 1.8397 60 60 60
-4.8840 11.3376 3.0390 60 60 60
12.1601 8.5886 2.3299 60 60 60
-3.7906 7.6426 -0.0411 60 60 60
-1.7238 -11.3368 1.9305 60 60 60
1.6561 3.4734 0.0083 60 60 60
0.8701 0.0014 1.8375 60 60 60
-0.3177 8.3452 -0.0738 60 60 60
0.9582 0.0004 1.8396 60 60 60
8.8442 8.6709 0.1075 60 60 60
3.7032 3.6151 0.0221 60 60 60
2.5986 -10.8729 0.1826 60 60 60
0.9078 0.0011 1.8384 60 60 60
9.7295 -5.9919 0.4154 60 60 60
0.8691 0.0014 1.8374 60 60 60
0.9400 0.0006 1.8392 60 60 60
-7.4108 2.5497 -0.0352 60 60 60
0.7644 3.6814 0.0125 60 60 60
0.4397 0.4526 1.5026 60 60 60
0.8734 0.0013 1.8375 60 60 60
-0.4266 -3.0186 -0.0526 60 60 60
0.2107 0.0233 1.5696 60 60 60
-8.5943 0.2861 1.6132 60 60 60
-4.2600 -4.3507 1.4351 60 60 60
5.4123 8.1014 1.6462 60 60 60
0.9157 0.0009 1.8386 60 60 60
3.2309 4.9474 0.0150 60 60 60
4.7180 -3.4802 -0.1177 60 60 60
6.5060 -4.8481 0.1587 60 60 60
5.0428 8.2338 3.3997 60 60 60
1.2708 0.4665 1.4838 60 60 60
10.2293 8.3904 0.8382 60 60 60
5.8919 -10.5952 2.9500 60 60 60
6.1495 7.9012 3.1704 60 60 60
1.2351 -4.4613 0.1783 60 60 60
1.3838 -0.4665 1.5083 60 60 60
1.4087 -0.3099 1.4844 60 60 60
-0.0859 -6.8662 -0.1231 60 60 60
-0.5000 7.4555 -0.0554 60 60 60
-3.2107 -4.8559 1.4217 60 60 60
-7.9131 -11.9208 3.2549 60 60 60
0.9512 0.0005 1.8394 60 60 60
-6.3274 -9.7896 -0.1418 60 60 60
-3.8149 -4.5772 1.5843 60 60 60
24.5203 -25.8767 3.9518 60 60 60
0.8978 0.0012 1.8382 60 60 60
-0.3656 -8.9867 0.1631 60 60 60
4.3743 3.8985 0.0298 60 60 60
6.7430 -7.6362 -0.0397 60 60 60
3.3071 -7.3744 -0.1381 60 60 60
13.7619 -10.3534 -0.3281 60 60 60
2.2227 -8.4907 0.3408 60 60 60
-0.4164 -11.3408 2.6700 60 60 60
-1.7943 -11.3157 3.8505 60 60 60
-0.5732 -4.5591 -0.1016 60 60 60
9.0506 8.2875 3.1130 60 60 60
0.9105 -11.2070 2.8562 60 60 60
0.8991 0.0012 1.8382 60 60 60
0.9468 0.0005 1.8394 60 60 60
0.9382 0.0006 1.8392 60 60 60
-0.0595 -3.3148 -0.0589 60 60 60
0.9544 0.0004 1.8395 60 60 60
8.2198 5.4390 -0.0020 60 60 60
0.9598 0.0003 1.8396 60 60 60
-9.0490 -2.1704 0.1358 60 60 60
6.2583 -10.5359 3.5026 60 60 60
0.9124 0.0010 1.8385 60 60 60
0.9571 0.0004 1.8396 60 60 60
1.3550 -0.2782 1.4861 60 60 60
4.3306 -24.9714 2.2027 60 60 60
0.0679 0.3421 1.4896 60 60 60
5.0231 3.0856 0.0170 60 60 60
2.4595 3.8475 0.0172 60 60 60
25.2323 -23.3904 6.9901 60 60 60
0.9587 0.0004 1.8396 60 60 60
-3.7366 5.6839 -0.0266 60 60 60
-9.4050 12.7311 0.0544 60 60 60
0.2851 0.0661 1.5407 60 60 60
0.0041 -8.9179 -0.0495 60 60 60
-12.3783 12.5483 -0.0738 60 60 60
1.5959 -3.6906 -0.1007 60 60 60
4.9956 -0.5936 -0.0087 60 60 60
-1.0134 -3.8035 0.2604 60 60 60
-5.9781 -4.3199 0.4232 60 60 60
-1.0358 3.0858 0.0092 60 60 60
4.5493 8.3529 0.1798 60 60 60
-3.0935 9.1541 -0.0676 60 60 60
0.0852 3.0746 0.0062 60 60 60
1.6393 9.2997 0.9495 60 60 60
-5.3005 3.1060 -0.0191 60 60 60
1.4187 3.3558 0.0013 60 60 60
-4.5189 11.3265 2.1271 60 60 60
1.5638 -0.0522 1.5137 60 60 60
-5.9332 -11.6583 4.0325 60 60 60
2.9542 5.7503 -0.0109 60 60 60
-1.6150 3.9727 0.0103 60 60 60
2.1742 -8.5104 0.3411 60 60 60
-13.5221 14.2712 2.5501 60 60 60
2.3878 4.2017 0.0179 60 60 60
0.0332 -0.2912 1.4876 60 60 60
-3.1709 -11.4908 0.8586 60 60 60
0.9121 0.0010 1.8385 60 60 60
0.8723 0.0013 1.8375 60 60 60
5.0707 2.9701 0.0236 60 60 60
-3.5939 3.4865 -0.0037 60 60 60
0.9414 0.0006 1.8392 60 60 60
0.4854 0.0383 1.6176 60 60 60
0.9344 0.0007 1.8391 60 60 60
-25.2770 -18.6367 2.9951 60 60 60
1.2241 9.4411 1.1791 60 60 60
2.5968 -0.5340 0.9932 60 60 60
0.8547 0.0015 1.8371 60 60 60
5.2991 -10.6077 0.2638 60 60 60
0.8969 0.0011 1.8381 60 60 60
5.2959 -10.6687 1.6094 60 60 60
-1.8813 10.4689 2.0032 60 60 60
5.9216 7.8383 1.1862 60 60 60
-1.7556 -3.5725 1.0067 60 60 60
0.9484 0.0005 1.8394 60 60 60
0.9248 0.0008 1.8389 60 60 60
-2.3191 -2.8820 -0.0483 60 60 60
5.9867 -7.7845 0.4940 60 60 60
5.0292 8.2062 1.4499 60 60 60
8.1154 -4.2521 0.5100 60 60 60
0.9078 0.0010 1.8384 60 60 60
0.8924 0.0011 1.8380 60 60 60
5.2314 -1.0812 -0.0258 60 60 60
-15.6686 17.4012 3.2188 60 60 60
1.9479 5.6410 0.0004 60 60 60
1.5152 -6.1792 -0.1493 60 60 60
0.3151 9.6476 3.0327 60 60 60
-18.5388 10.1597 1.2325 60 60 60
0.9712 0.0002 1.8399 60 60 60
-2.2265 3.6005 0.0108 60 60 60
-8.8377 12.8330 0.8253 60 60 60
-12.8162 -12.3158 4.6089 60 60 60
0.9414 0.0006 1.8392 60 60 60
4.9323 -10.8438 1.6257 60 60 60
-0.2148 -4.2019 0.9554 60 60 60
-5.3745 9.8578 -0.0389 60 60 60
0.2164 -0.4800 1.4675 60 60 60
-0.5631 9.7370 0.0843 60 60 60
-27.8901 18.8829 7.2847 60 60 60
0.9270 0.0007 1.8389 60 60 60
4.1170 -3.1166 -0.0954 60 60 60
-2.4526 6.2396 -0.0132 60 60 60
0.9292 0.0007 1.8390 60 60 60
1.5264 0.0661 1.5294 60 60 60
3.5654 2.9617 0.0214 60 60 60
1.4841 0.0889 1.4743 60 60 60
0.9292 0.0008 1.8390 60 60 60
8.6722 -4.2733 -0.2194 60 60 60
0.9110 0.0010 1.8385 60 60 60
2.2368 9.1180 1.3629 60 60 60
-1.9680 8.2110 -0.0603 60 60 60
6.4393 7.9274 3.1874 60 60 60
0.5749 -4.6747 1.8422 60 60 60
3.3367 -4.3764 0.8880 60 60 60
1.9907 -11.0566 2.5378 60 60 60
-0.8478 -3.0390 -0.0451 60 60 60
0.5132 9.5909 3.4712 60 60 60
-5.0383 -11.6170 1.1691 60 60 60
-16.7641 15.2156 6.5710 60 60 60
0.8761 0.0013 1.8376 60 60 60
0.8750 0.0013 1.8376 60 60 60
-0.1332 3.0273 0.0059 60 60 60
-25.3191 -17.9919 2.9988 60 60 60
0.6175 4.7777 0.0026 60 60 60
-10.6597 -12.0936 4.7077 60 60 60
-7.1096 12.3053 5.0416 60 60 60
-9.9308 6.0114 0.0293 60 60 60
1.6094 -6.6805 -0.1434 60 60 60
0.0248 -0.1612 1.4970 60 60 60
0.9436 0.0006 1.8393 60 60 60
-2.0757 -3.4333 1.0023 60 60 60
2.6193 9.0246 3.5080 60 60 60
-10.5463 13.0510 0.3817 60 60 60
-4.8290 -11.5488 3.8931 60 60 60
5.8272 7.8490 1.6267 60 60 60
-3.2654 -11.4543 4.3076 60 60 60
0.3168 -0.4808 1.4790 60 60 60
-4.5045 -4.5768 2.2424 60 60 60
0.9617 0.0003 1.8397 60 60 60
-20.2106 16.4919 6.6640 60 60 60
5.6394 3.7043 0.0274 60 60 60
7.3414 -10.4168 2.0872 60 60 60
6.8114 -4.2764 -0.1941 60 60 60
0.9021 0.0011 1.8383 60 60 60
5.4058 5.1889 -0.0076 60 60 60
0.5366 -0.4607 1.5015 60 60 60
0.8769 0.0013 1.8376 60 60 60
1.3876 -0.1890 1.4876 60 60 60
-3.4543 -3.0516 0.1087 60 60 60
-13.3541 5.9055 -0.0140 60 60 60
-36.3451 4.1473 0.9495 60 60 60
5.9142 -0.3691 0.0043 60 60 60
-1.2799 3.4823 0.0132 60 60 60
5.3803 1.2721 0.0241 60 60 60
0.8772 0.0013 1.8376 60 60 60
0.9303 0.0007 1.8390 60 60 60
-6.1751 -0.0565 -0.0288 60 60 60
0.4590 -3.8641 -0.1043 60 60 60
-0.5331 3.3015 0.0085 60 60 60
-0.1843 -3.5294 -0.0776 60 60 60
5.0209 -2.0582 -0.0668 60 60 60
0.1732 -0.0018 1.5766 60 60 60
6.8686 -10.4615 1.8174 60 60 60
4.5936 7.6488 0.0712 60 60 60
1.3122 9.4553 3.6217 60 60 60
-10.6437 4.7068 2.9746 60 60 60
8.9056 8.2941 3.6547 60 60 60
-0.2298 9.9535 3.1008 60 60 60
1.0678 -3.5812 -0.0915 60 60 60
0.9392 0.0006 1.8392 60 60 60
6.4323 7.9027 2.2751 60 60 60
-0.6189 -3.9676 -0.1052 60 60 60
-16.8327 15.2431 6.0219 60 60 60
0.6689 -4.5410 0.2993 60 60 60
-2.9150 10.8975 1.7831 60 60 60
-6.3933 -0.1399 0.4524 60 60 60
-0.7694 10.1085 2.4302 60 60 60
1.5548 0.2692 1.4512 60 60 60
0.9541 0.0005 1.8395 60 60 60
0.6028 4.1644 0.0118 60 60 60
4.3105 3.9664 0.0305 60 60 60
-9.5055 12.8848 0.4262 60 60 60
1.8323 -11.1182 1.5082 60 60 60
5.6388 -2.4705 -0.0825 60 60 60
4.6113 6.1966 -0.0490 60 60 60
1.5954 3.4901 0.0102 60 60 60
0.9338 0.0007 1.8391 60 60 60
4.7946 -4.3848 1.6481 60 60 60
3.8043 -3.0227 -0.0833 60 60 60
10.4700 8.4160 2.3079 60 60 60
-1.1727 3.2653 0.0108 60 60 60
27.4172 -16.7836 5.7105 60 60 60
1.8293 -6.0951 -0.1511 60 60 60
2.1828 -2.9444 -0.0560 60 60 60
-2.4687 -4.7612 -0.1307 60 60 60
-11.0035 -16.5338 0.4430 60 60 60
-7.6569 6.3578 -0.0064 60 60 60
-9.7990 -12.0183 4.9639 60 60 60
0.8899 0.0012 1.8380 60 60 60
7.3314 4.8638 0.0143 60 60 60
0.9590 0.0003 1.8396 60 60 60
2.1261 6.8738 -0.0414 60 60 60
1.0134 5.0681 -0.0065 60 60 60
5.3127 -10.6487 2.4145 60 60 60
0.2318 0.2829 1.5116 60 60 60
0.2232 0.2766 1.5094 60 60 60
1.5519 -3.4731 -0.0921 60 60 60
-6.0788 0.7501 -0.0140 60 60 60
3.9658 4.3299 0.0261 60 60 60
0.4899 0.0142 1.6077 60 60 60
7.3602 -4.3929 0.2345 60 60 60
-6.9973 12.2241 0.8839 60 60 60
6.0823 -10.6099 1.5734 60 60 60
-1.3941 4.9201 -0.0103 60 60 60
5.5374 0.2106 0.0199 60 60 60
0.4098 -0.2667 1.5187 60 60 60
-18.5851 -10.4327 2.7096 60 60 60
-4.6477 11.3747 4.5375 60 60 60
-23.9140 -19.3283 7.3839 60 60 60
-10.4083 3.4780 -0.1339 60 60 60
1.3395 0.2779 1.5015 60 60 60
0.0685 -4.3157 0.9316 60 60 60
0.8421 -4.5540 0.7490 60 60 60
0.9612 0.0003 1.8397 60 60 60
4.7649 2.0672 0.0314 60 60 60
1.4311 -11.1559 1.0038 60 60 60
1.7316 9.2736 0.7279 60 60 60
0.8911 3.1053 0.0135 60 60 60
0.1898 0.0457 1.5614 60 60 60
11.7053 8.5450 2.3237 60 60 60
4.8485 -3.2736 -0.1117 60 60 60
-6.4018 -3.4882 0.4515 60 60 60
-6.0406 5.1472 -0.0789 60 60 60
1.6162 0.1252 1.4398 60 60 60
-4.2109 2.6300 0.0021 60 60 60
-1.3719 -7.5631 -0.1414 60 60 60
4.4863 7.5957 3.0682 60 60 60
-2.3455 -3.3345 0.9918 60 60 60
2.3434 3.6449 0.0097 60 60 60
1.3358 0.3612 1.5128 60 60 60
0.8707 0.0014 1.8375 60 60 60
-1.1539 5.9734 -0.0143 60 60 60
3.4616 -3.4217 -0.0992 60 60 60
6.2204 7.8732 1.3872 60 60 60
-4.7350 1.3721 0.0057 60 60 60
5.2454 0.1475 0.0165 60 60 60
2.7495 8.9438 0.4821 60 60 60
2.3810 -3.9105 -0.1189 60 60 60
0.9558 0.0004 1.8395 60 60 60
0.9574 0.0003 1.8396 60 60 60
2.3391 9.0835 1.3590 60 60 60
3.2393 -11.0055 3.0184 60 60 60
0.9500 -3.8330 -0.1035 60 60 60
-1.4525 -3.9519 -0.0997 60 60 60
-0.0975 0.2158 1.4757 60 60 60
8.0977 9.2740 1.5260 60 60 60
4.4828 -5.0399 0.1833 60 60 60
26.6889 -19.1970 4.3552 60 60 60
5.4194 -4.2077 -0.1733 60 60 60
3.1119 8.8294 1.5410 60 60 60
-6.4618 -0.9079 0.6035 60 60 60
0.9530 0.0005 1.8395 60 60 60
-0.8059 -4.3973 -0.0580 60 60 60
1.2975 0.3376 1.5034 60 60 60
1.6690 -3.4354 -0.0917 60 60 60
4.4083 6.3555 -0.0473 60 60 60
0.4314 4.1690 0.0107 60 60 60
-4.7211 -11.5417 4.4999 60 60 60
-6.6731 -3.3475 1.0162 60 60 60
2.7915 -4.4841 -0.0463 60 60 60
6.3387 5.0535 0.0002 60 60 60
-4.7343 1.4062 0.0030 60 60 60
-0.0914 -11.3172 2.3860 60 60 60
6.8557 7.9431 1.8111 60 60 60
3.1159 -8.3615 0.0797 60 60 60
3.4898 8.5495 2.7810 60 60 60
-10.2883 9.8556 -0.0595 60 60 60
1.2655 -0.5152 1.4780 60 60 60
4.9923 -0.6671 -0.0116 60 60 60
6.0399 -7.7769 0.2653 60 60 60
0.9609 0.0003 1.8397 60 60 60
1.3531 9.4210 2.4948 60 60 60
0.8463 0.0016 1.8368 60 60 60
5.2497 0.3292 0.0112 60 60 60
1.3388 -6.2309 -0.1521 60 60 60
9.3544 -5.4566 0.2521 60 60 60
0.9525 0.0004 1.8395 60 60 60
1.3535 -0.3223 1.5096 60 60 60
2.8364 8.9339 1.9783 60 60 60
-12.6061 -3.4189 1.4779 60 60 60
4.2701 -5.7441 0.0792 60 60 60
-1.0589 -3.1973 -0.0597 60 60 60
0.9772 0.0001 1.8400 60 60 60
1.7254 -4.2062 -0.1300 60 60 60
-11.7140 13.7510 0.7227 60 60 60
7.9904 -5.6518 -0.0046 60 60 60
0.8767 0.0013 1.8376 60 60 60
3.9979 -4.4360 -0.1643 60 60 60
-1.8938 -3.4211 0.1247 60 60 60
4.0394 -3.7992 -0.1338 60 60 60
26.1287 -24.0788 3.0554 60 60 60
7.5285 8.1280 3.0235 60 60 60
1.0162 -3.8196 -0.1012 60 60 60
4.8111 4.8534 0.0144 60 60 60
3.6482 8.6528 2.1522 60 60 60
0.9430 0.0005 1.8393 60 60 60
-4.6918 2.8387 -0.0026 60 60 60
-6.5120 0.2033 0.6093 60 60 60
-2.5060 -3.2102 0.4132 60 60 60
0.9281 0.0007 1.8390 60 60 60
-10.6197 7.5123 0.1384 60 60 60
0.6409 -4.6667 1.4025 60 60 60
-1.8784 3.4710 0.0067 60 60 60
-0.0957 -8.9318 0.1671 60 60 60
-22.1162 16.7652 3.6174 60 60 60
8.9565 -29.2348 7.0979 60 60 60
-30.5330 19.6867 4.2145 60 60 60
0.9520 0.0005 1.8395 60 60 60
0.9368 0.0006 1.8391 60 60 60
0.1086 0.0175 1.5976 60 60 60
-6.4371 0.0712 0.4450 60 60 60
0.4739 0.0337 1.6125 60 60 60
-9.1011 12.8242 2.3423 60 60 60
-6.3060 9.6313 -0.0610 60 60 60
-1.6705 8.2675 -0.0645 60 60 60
-4.8391 -11.5956 1.7722 60 60 60
-1.1849 -11.2731 1.3707 60 60 60
-5.5465 2.4731 0.0003 60 60 60
6.1285 1.3430 0.0210 60 60 60
1.4014 0.4493 1.5361 60 60 60
-20.2104 16.5248 7.3136 60 60 60
-6.5730 12.0872 1.5592 60 60 60
5.8110 1.0194 0.0149 60 60 60
-11.8226 13.8509 2.9094 60 60 60
-8.0349 13.9899 4.6477 60 60 60
-4.0533 -11.5638 0.5679 60 60 60
