ply
format ascii 1.0
element vertex 1535
property float x
property float y
property float z
property uchar red
property uchar green
property uchar blue
end_header
2.5562 3.0164 -0.0526 60 60 60
1.4181 -0.3382 1.5034 60 60 60
-8.1144 -3.6551 1.1086 60 60 60
-1.2983 1.9390 0.5555 60 60 60
4.4887 -4.4090 0.0330 60 60 60
2.2494 9.6658 1.1282 60 60 60
7.6001 9.3850 0.2159 60 60 60
0.9858 -0.0000 1.8402 60 60 60
3.1246 8.8341 3.4796 60 60 60
0.0592 -0.1539 1.4968 60 60 60
-0.6724 8.1176 3.3067 60 60 60
1.1332 4.0970 -0.0962 60 60 60
-4.2119 1.7229 2.4708 60 60 60
3.5067 -9.8469 2.6421 60 60 60
4.2614 5.3966 -0.1191 60 60 60
0.5379 2.1200 1.1372 60 60 60
-3.0392 1.7349 0.6796 60 60 60
-0.2649 8.0975 1.9222 60 60 60
-2.7264 1.8675 2.4076 60 60 60
0.9858 -0.0000 1.8402 60 60 60
-1.5669 3.8659 0.7641 60 60 60
-11.1965 -44.7033 4.4339 60 60 60
-0.3565 2.0572 0.9581 60 60 60
2.7580 4.4012 -0.0944 60 60 60
7.4733 -3.5429 -0.0592 60 60 60
3.8498 -4.8043 0.2167 60 60 60
9.4409 9.6747 -0.0296 60 60 60
-1.1818 3.4390 1.5719 60 60 60
-2.8267 8.6474 2.7051 60 60 60
9.7944 10.0535 3.3366 60 60 60
-2.1146 1.9502 2.5965 60 60 60
-3.1849 -0.9909 1.1257 60 60 60
11.8098 10.1426 1.7144 60 60 60
-2.9568 1.8381 2.3339 60 60 60
0.9858 -0.0000 1.8402 60 60 60
2.7258 -4.0551 0.0077 60 60 60
3.2325 -4.3631 1.0301 60 60 60
0.1938 3.6580 -0.0918 60 60 60
1.4362 0.3037 1.4904 60 60 60
0.1949 2.0977 1.6740 60 60 60
1.3193 -10.2407 1.5558 60 60 60
2.0375 -4.1089 0.4480 60 60 60
0.9858 -0.0000 1.8402 60 60 60
0.0769 -0.2822 1.4902 60 60 60
-0.5641 -4.0273 -0.0123 60 60 60
-3.1693 -4.3190 0.0115 60 60 60
0.4557 -0.4815 1.4882 60 60 60
-3.2029 1.7302 0.9742 60 60 60
-0.3814 2.6686 0.5058 60 60 60
-0.0319 -10.4358 2.5900 60 60 60
0.2959 2.1161 1.4599 60 60 60
0.9858 -0.0000 1.8402 60 60 60
12.6604 -9.6807 0.2056 60 60 60
7.9745 9.5777 1.2697 60 60 60
0.3191 2.1610 0.6837 60 60 60
0.4341 2.0872 0.9745 60 60 60
-0.4269 2.6615 0.6657 60 60 60
1.6276 -7.3257 0.9282 60 60 60
1.4766 -0.4207 1.5231 60 60 60
1.5156 -0.3972 1.5328 60 60 60
1.1721 -4.0915 1.0460 60 60 60
1.5488 -0.2392 1.4797 60 60 60
-1.2978 1.9104 1.3226 60 60 60
0.0594 -0.2419 1.4888 60 60 60
-22.0901 0.8926 -0.3208 60 60 60
18.2956 11.8252 0.0936 60 60 60
0.9858 -0.0000 1.8402 60 60 60
11.9734 10.1225 0.6632 60 60 60
1.0520 3.3952 -0.0612 60 60 60
-1.7160 1.9164 1.7395 60 60 60
1.7371 -3.7345 -0.0217 60 60 60
-6.3827 -4.2890 1.7707 60 60 60
0.9858 -0.0000 1.8402 60 60 60
-1.3510 1.9559 1.6704 60 60 60
0.9858 -0.0000 1.8402 60 60 60
-10.1796 -11.9502 3.8534 60 60 60
0.6747 0.5099 1.5068 60 60 60
-3.2712 -10.9946 0.6282 60 60 60
1.1331 0.4130 1.5721 60 60 60
7.4960 -5.9510 0.0607 60 60 60
0.1567 -10.5080 1.1092 60 60 60
8.3410 6.5380 -0.1087 60 60 60
1.5173 -0.1409 1.4974 60 60 60
2.1160 4.3655 -0.0919 60 60 60
0.4239 0.0798 1.5713 60 60 60
-1.6184 1.8788 1.0541 60 60 60
0.5992 -0.4835 1.5134 60 60 60
-2.4622 -2.8338 0.0303 60 60 60
0.9858 -0.0000 1.8402 60 60 60
1.0496 -0.4621 1.5720 60 60 60
-5.6580 -4.8304 -0.0010 60 60 60
2.4846 4.5407 -0.0937 60 60 60
0.9858 -0.0000 1.8402 60 60 60
0.9858 -0.0000 1.8402 60 60 60
0.9858 -0.0000 1.8402 60 60 60
4.3706 -4.9716 0.5276 60 60 60
0.9858 -0.0000 1.8402 60 60 60
-6.3407 -11.5498 0.8695 60 60 60
0.9858 -0.0000 1.8402 60 60 60
0.9858 -0.0000 1.8402 60 60 60
0.9858 -0.0000 1.8402 60 60 60
1.4994 4.3122 -0.1088 60 60 60
-5.3864 -7.0573 0.1021 60 60 60
1.1106 0.4721 1.5745 60 60 60
-1.2954 -2.8579 0.0169 60 60 60
-1.8017 1.9574 2.3760 60 60 60
5.9991 5.1159 -0.0886 60 60 60
-2.2787 1.9020 2.0849 60 60 60
0.9858 -0.0000 1.8402 60 60 60
-1.3814 2.4138 2.1151 60 60 60
3.2730 9.8412 1.0562 60 60 60
1.3166 0.5463 1.4825 60 60 60
1.5312 0.0114 1.5170 60 60 60
1.6789 9.5751 1.1648 60 60 60
1.3690 0.5547 1.4809 60 60 60
0.5372 -0.4826 1.4947 60 60 60
-2.1895 1.8131 0.5848 60 60 60
7.8355 -12.1978 0.1765 60 60 60
-4.3434 1.6957 -0.0587 60 60 60
2.7887 -9.9716 1.9623 60 60 60
0.4174 3.5565 1.5410 60 60 60
-6.1114 1.7022 -0.0765 60 60 60
4.4154 7.5295 -0.0630 60 60 60
0.9858 -0.0000 1.8402 60 60 60
2.0676 9.3933 -0.1948 60 60 60
0.3362 -10.3032 0.6326 60 60 60
7.8543 9.5915 3.2057 60 60 60
3.2147 -4.4263 1.4921 60 60 60
0.4065 0.2339 1.5244 60 60 60
2.8535 -5.5824 0.3346 60 60 60
0.9858 -0.0000 1.8402 60 60 60
-5.1189 -2.7792 0.0437 60 60 60
0.9858 -0.0000 1.8402 60 60 60
0.4074 0.1534 1.5389 60 60 60
1.3948 0.4715 1.4852 60 60 60
-2.0017 -6.4083 0.1141 60 60 60
1.5334 -0.3813 1.5297 60 60 60
2.2306 -6.2989 0.2362 60 60 60
0.1630 -0.0605 1.5173 60 60 60
0.9858 -0.0000 1.8402 60 60 60
0.9858 -0.0000 1.8402 60 60 60
0.4995 2.1461 1.4550 60 60 60
0.9858 -0.0000 1.8402 60 60 60
0.7490 2.1707 1.1771 60 60 60
0.0794 -0.0926 1.5316 60 60 60
0.9858 -0.0000 1.8402 60 60 60
3.6682 -3.9263 -0.0474 60 60 60
0.1416 0.1355 1.5059 60 60 60
6.7408 -4.6139 -0.0235 60 60 60
1.4163 -0.3708 1.4926 60 60 60
-0.0103 8.0956 1.3397 60 60 60
-0.4428 2.2640 1.0835 60 60 60
1.7995 5.3061 -0.1407 60 60 60
22.7705 -13.8851 5.6299 60 60 60
1.7160 -0.1750 1.4418 60 60 60
-0.3860 -7.0151 0.1894 60 60 60
-1.2897 3.6467 1.9564 60 60 60
2.9437 3.2539 -0.0592 60 60 60
6.5484 -6.5562 0.7572 60 60 60
7.0305 -4.2355 -0.0374 60 60 60
1.7653 9.6156 1.6087 60 60 60
0.2609 2.1321 1.8278 60 60 60
-6.9462 -11.6149 1.1892 60 60 60
-1.3800 3.0461 0.7648 60 60 60
-0.8583 -3.3654 0.0046 60 60 60
-3.0398 -0.1077 1.0803 60 60 60
-3.7689 -7.7555 0.1096 60 60 60
-13.4904 -12.6762 2.9199 60 60 60
1.7654 -4.2144 -0.0096 60 60 60
1.5379 0.2579 1.4836 60 60 60
-1.4035 1.9035 0.7789 60 60 60
1.1000 8.2744 2.8288 60 60 60
2.9536 -4.2425 1.9545 60 60 60
-4.5293 -11.2603 0.8924 60 60 60
-2.5479 -0.8596 0.7879 60 60 60
0.0202 -10.5411 0.8647 60 60 60
0.9858 -0.0000 1.8402 60 60 60
0.9858 -0.0000 1.8402 60 60 60
-11.5628 -4.3030 1.7893 60 60 60
3.6620 8.8877 3.0471 60 60 60
9.7162 -8.8093 1.4097 60 60 60
1.5134 0.3742 1.5237 60 60 60
-1.2531 2.0030 0.7911 60 60 60
0.9858 -0.0000 1.8402 60 60 60
0.3019 2.1408 1.4556 60 60 60
2.5090 7.3550 -0.1801 60 60 60
0.9858 -0.0000 1.8402 60 60 60
1.5148 0.4811 1.5339 60 60 60
0.9858 -0.0000 1.8402 60 60 60
2.6221 8.7054 2.6175 60 60 60
-7.4943 -8.9667 0.1848 60 60 60
2.9060 -3.7360 -0.0347 60 60 60
0.1009 -3.2221 0.0012 60 60 60
5.8778 9.1726 3.3460 60 60 60
-1.0419 -4.1679 -0.0030 60 60 60
8.0684 7.7349 2.7598 60 60 60
0.9858 -0.0000 1.8402 60 60 60
4.1799 -9.8015 0.9403 60 60 60
0.9858 -0.0000 1.8402 60 60 60
5.8031 -4.6675 -0.0022 60 60 60
-2.0496 -4.3527 1.9676 60 60 60
8.7342 9.8303 3.2663 60 60 60
2.2864 5.5837 -0.1478 60 60 60
3.5305 -9.8847 1.2159 60 60 60
-7.7728 -5.5005 0.2906 60 60 60
0.9858 -0.0000 1.8402 60 60 60
-1.3088 -4.2697 1.9336 60 60 60
14.4341 -11.8157 0.3446 60 60 60
-6.9575 1.1561 -0.0652 60 60 60
8.6734 -11.4074 0.1615 60 60 60
-0.2522 -4.7442 0.1022 60 60 60
9.5675 -9.0228 3.1605 60 60 60
0.0455 1.8324 2.2293 60 60 60
3.2284 7.7703 -0.1634 60 60 60
5.1330 -5.0946 -1.9257 60 60 60
0.3141 0.2765 1.5146 60 60 60
1.4427 -0.3969 1.5258 60 60 60
0.1850 -0.3800 1.4877 60 60 60
0.9858 -0.0000 1.8402 60 60 60
1.4582 -3.3925 -0.0248 60 60 60
-1.4569 3.1649 1.8698 60 60 60
0.5729 2.1341 1.3514 60 60 60
5.5357 9.0831 0.7063 60 60 60
3.8634 8.9433 3.2763 60 60 60
0.2680 2.1145 1.6192 60 60 60
0.9858 -0.0000 1.8402 60 60 60
31.5198 21.2104 2.2245 60 60 60
3.2219 -4.3421 0.7980 60 60 60
5.3897 -3.7994 -0.0637 60 60 60
6.1792 -5.2080 0.0066 60 60 60
2.2999 -10.2066 0.5445 60 60 60
6.7166 9.1755 0.8438 60 60 60
-4.4367 -0.7936 1.7059 60 60 60
1.5725 -0.1516 1.4817 60 60 60
4.9567 4.5775 -0.0842 60 60 60
4.0709 6.3275 -0.1374 60 60 60
-4.0687 1.7441 2.5813 60 60 60
3.1064 -3.0090 -0.0367 60 60 60
0.3917 -0.3323 1.5114 60 60 60
3.8824 8.7801 -0.0154 60 60 60
-1.8502 1.9009 1.4188 60 60 60
0.9858 -0.0000 1.8402 60 60 60
2.1593 -4.0358 0.8763 60 60 60
-5.4574 1.6115 2.7668 60 60 60
0.9858 -0.0000 1.8402 60 60 60
5.3928 3.8335 -0.0459 60 60 60
-0.1456 2.0411 1.4045 60 60 60
3.6318 4.6913 -0.1032 60 60 60
0.9858 -0.0000 1.8402 60 60 60
-1.4046 2.7266 1.9590 60 60 60
0.9858 -0.0000 1.8402 60 60 60
2.7407 -0.2804 0.9996 60 60 60
0.3853 0.2835 1.5229 60 60 60
1.5099 -0.0046 1.5129 60 60 60
0.9858 -0.0000 1.8402 60 60 60
17.6675 -11.9496 1.0323 60 60 60
1.5312 -0.0049 1.5170 60 60 60
0.2617 -0.3332 1.5018 60 60 60
0.9858 -0.0000 1.8402 60 60 60
3.9342 -9.8402 0.7132 60 60 60
1.3576 0.4149 1.5055 60 60 60
0.6985 2.1652 1.1794 60 60 60
1.6787 0.2592 1.4508 60 60 60
1.6800 5.3536 -0.1453 60 60 60
11.8201 10.3962 3.4743 60 60 60
0.9858 -0.0000 1.8402 60 60 60
-1.4032 2.6657 1.2019 60 60 60
-2.6583 8.5298 2.6847 60 60 60
18.0483 -32.0594 6.0479 60 60 60
-0.4307 2.1169 0.9267 60 60 60
-9.2913 -11.8820 2.2801 60 60 60
4.8211 8.9913 1.2329 60 60 60
0.9858 -0.0000 1.8402 60 60 60
-1.4689 3.5301 2.6752 60 60 60
5.6286 0.3578 0.0247 60 60 60
-4.0061 1.6585 1.3400 60 60 60
-1.3942 -4.0321 -0.0033 60 60 60
-0.1129 2.0888 1.5662 60 60 60
1.1910 -7.4611 0.2186 60 60 60
0.9858 -0.0000 1.8402 60 60 60
1.4368 -0.4068 1.4882 60 60 60
1.4816 9.5686 1.6233 60 60 60
-5.0793 -7.2046 0.1062 60 60 60
-0.1278 -10.4167 3.3348 60 60 60
17.5186 -12.4399 0.5561 60 60 60
2.0665 -4.0539 0.2407 60 60 60
11.4096 10.0913 2.0647 60 60 60
-2.6718 -4.1154 0.0106 60 60 60
1.6079 9.6018 1.8402 60 60 60
17.1148 -35.5951 6.4695 60 60 60
6.2399 9.0607 0.1460 60 60 60
-1.2954 3.6760 2.1590 60 60 60
1.4264 -0.3570 1.5104 60 60 60
7.8415 9.4457 0.7325 60 60 60
8.3300 9.6115 2.3746 60 60 60
1.3830 -4.1343 0.0670 60 60 60
-1.5421 -8.1105 0.1292 60 60 60
5.0134 9.0522 1.9112 60 60 60
4.2934 6.7596 -0.0855 60 60 60
-1.6061 -3.5444 0.0130 60 60 60
-1.5219 1.8952 0.9910 60 60 60
0.3277 -4.1756 0.4301 60 60 60
-0.6368 -4.2981 -0.0083 60 60 60
3.8143 -9.7464 3.5888 60 60 60
-6.1691 -26.7112 2.0912 60 60 60
-6.5658 -11.5075 1.8353 60 60 60
4.6583 6.4290 -0.0757 60 60 60
9.2200 -7.5990 0.1202 60 60 60
1.6635 -7.3126 0.7525 60 60 60
-7.4464 -11.4970 4.8987 60 60 60
20.4599 -22.6811 6.4781 60 60 60
1.0097 -6.4772 0.2820 60 60 60
0.9858 -0.0000 1.8402 60 60 60
0.9858 -0.0000 1.8402 60 60 60
1.9694 -3.2289 -0.0282 60 60 60
1.5903 -10.1411 2.7301 60 60 60
2.7883 9.8102 2.0180 60 60 60
5.6118 -0.4917 0.0242 60 60 60
17.9003 -10.9565 1.4929 60 60 60
22.6619 -14.3563 5.0454 60 60 60
1.2331 -0.5020 1.4902 60 60 60
7.6582 9.3778 -0.0658 60 60 60
6.2290 -6.0454 0.0599 60 60 60
-23.8901 -11.7422 3.5966 60 60 60
-1.4440 3.2875 2.1536 60 60 60
0.6220 9.4040 0.7855 60 60 60
3.7652 3.5612 -0.0627 60 60 60
6.6116 9.1473 0.6020 60 60 60
2.7461 9.8189 2.2538 60 60 60
-4.0787 -8.6015 0.1730 60 60 60
5.4375 8.9745 0.0083 60 60 60
1.0773 0.4278 1.5901 60 60 60
3.5560 4.7478 -0.1033 60 60 60
5.9894 -0.0009 0.0210 60 60 60
1.5251 0.4462 1.5391 60 60 60
0.5364 -3.4827 -0.0162 60 60 60
0.6169 8.4191 3.4734 60 60 60
1.2277 4.0705 -0.0912 60 60 60
-3.2897 -11.0876 1.1737 60 60 60
3.2609 -2.8550 -0.0305 60 60 60
0.9858 -0.0000 1.8402 60 60 60
-7.5149 -3.9383 0.0189 60 60 60
8.2972 -6.3698 0.1104 60 60 60
0.9858 -0.0000 1.8402 60 60 60
20.2649 -23.5839 5.1460 60 60 60
0.9849 9.0508 2.2898 60 60 60
0.9858 -0.0000 1.8402 60 60 60
0.9858 -0.0000 1.8402 60 60 60
0.9858 -0.0000 1.8402 60 60 60
-10.8113 -3.4453 1.8026 60 60 60
0.2200 0.1406 1.5146 60 60 60
5.6726 -2.2514 -0.0313 60 60 60
-5.4347 -3.6215 0.0321 60 60 60
1.4717 0.3767 1.5225 60 60 60
2.8482 3.6396 -0.0731 60 60 60
4.5868 9.0423 3.0674 60 60 60
0.2750 0.1013 1.5203 60 60 60
-1.2628 1.8946 0.7384 60 60 60
-0.5590 -4.3173 -0.0089 60 60 60
0.4669 -0.4934 1.4877 60 60 60
0.1810 2.1172 2.0425 60 60 60
2.7289 -0.2363 1.0080 60 60 60
4.8767 9.1133 3.3133 60 60 60
5.5799 5.7940 -0.1207 60 60 60
3.8574 5.0740 -0.1108 60 60 60
12.2237 9.2483 -0.0165 60 60 60
-6.4117 -3.6867 0.0261 60 60 60
0.9858 -0.0000 1.8402 60 60 60
7.4737 9.4753 2.3711 60 60 60
2.9760 2.9552 -0.0559 60 60 60
0.6732 -3.2839 -0.0098 60 60 60
5.3415 0.2347 0.0212 60 60 60
32.8511 22.1836 1.3343 60 60 60
6.6989 -5.5914 0.0403 60 60 60
-1.4781 3.4311 2.3602 60 60 60
-3.0554 1.8303 2.4491 60 60 60
1.6761 -0.2692 1.4485 60 60 60
2.1940 -4.1921 0.5134 60 60 60
0.2843 -0.4144 1.4919 60 60 60
2.3863 -4.1291 0.5047 60 60 60
0.9858 -0.0000 1.8402 60 60 60
0.9858 -0.0000 1.8402 60 60 60
0.9858 -0.0000 1.8402 60 60 60
0.6365 2.1518 1.3999 60 60 60
0.6848 2.1264 1.0805 60 60 60
3.4609 -3.3321 -0.0430 60 60 60
2.4571 -10.0222 2.4506 60 60 60
1.4488 0.2955 1.5039 60 60 60
-0.1078 2.0897 1.4540 60 60 60
0.2124 2.1213 1.4578 60 60 60
-1.5443 3.7485 2.3921 60 60 60
7.8422 9.5322 2.3723 60 60 60
3.6999 3.2064 -0.0537 60 60 60
0.0769 -0.0876 1.5070 60 60 60
1.6031 0.0749 1.5103 60 60 60
-6.6643 -6.5775 0.0415 60 60 60
4.3979 8.9740 2.3807 60 60 60
-1.7039 1.8570 0.7110 60 60 60
8.0712 7.5083 2.2563 60 60 60
-1.1083 3.4621 1.6646 60 60 60
3.0163 8.7642 2.8248 60 60 60
0.9858 -0.0000 1.8402 60 60 60
-1.1214 -2.7287 0.0171 60 60 60
1.4435 -0.2923 1.5053 60 60 60
1.6312 -0.1346 1.4703 60 60 60
-16.9644 -13.2503 0.5529 60 60 60
4.9762 1.0665 0.0143 60 60 60
0.5943 9.4139 1.2270 60 60 60
2.1908 -4.0577 0.1067 60 60 60
-8.0267 -3.6801 1.1128 60 60 60
7.8803 9.4312 0.1794 60 60 60
-2.8785 1.7781 0.9210 60 60 60
1.4694 9.4706 -0.1714 60 60 60
6.4485 6.6145 -0.0198 60 60 60
-5.1832 -2.6407 0.0465 60 60 60
-1.5802 3.9685 1.0837 60 60 60
-0.2732 2.0290 0.9803 60 60 60
0.6547 2.1399 1.0186 60 60 60
-6.2881 -4.2833 1.3778 60 60 60
-4.0489 -4.2605 0.0202 60 60 60
5.5899 0.7412 0.0257 60 60 60
0.7955 2.2134 1.3835 60 60 60
5.6688 -4.1335 -0.0429 60 60 60
0.9858 -0.0000 1.8402 60 60 60
22.8191 -13.7465 5.0072 60 60 60
-0.0964 -4.9039 0.5618 60 60 60
2.1361 9.6959 2.0430 60 60 60
-3.2364 -11.1193 3.1146 60 60 60
0.9858 -0.0000 1.8402 60 60 60
-0.7383 -4.1919 0.7240 60 60 60
1.8343 -4.0377 0.1677 60 60 60
-5.6354 -4.4819 1.0133 60 60 60
0.0964 2.0823 1.1268 60 60 60
-1.2819 3.5879 1.9558 60 60 60
7.3904 5.9929 -0.1034 60 60 60
-2.3461 1.8159 0.9226 60 60 60
0.4035 0.1903 1.5313 60 60 60
4.4055 -4.4632 0.0394 60 60 60
3.2727 4.9586 -0.1088 60 60 60
-1.4540 3.2550 1.1995 60 60 60
-1.4030 2.7104 2.2125 60 60 60
-1.9171 1.8874 1.7383 60 60 60
-0.3937 2.6720 0.6665 60 60 60
2.6920 4.8584 -0.1094 60 60 60
3.4942 -3.2947 -0.0406 60 60 60
-0.2785 -2.9340 0.0097 60 60 60
0.9858 -0.0000 1.8402 60 60 60
-0.1100 -7.8057 0.3817 60 60 60
-0.0656 2.0862 1.5674 60 60 60
1.5716 -0.1551 1.4818 60 60 60
-12.0009 -7.2397 0.3374 60 60 60
-1.5432 3.6745 1.5525 60 60 60
2.2096 -3.8164 -0.0284 60 60 60
4.1040 -4.9740 1.5444 60 60 60
1.3920 0.5595 1.4709 60 60 60
6.9180 9.3233 1.3366 60 60 60
0.9858 -0.0000 1.8402 60 60 60
0.9858 -0.0000 1.8402 60 60 60
1.5162 0.1342 1.5003 60 60 60
-1.4221 2.8909 2.1362 60 60 60
5.5513 7.5303 -0.0167 60 60 60
-3.0724 1.8253 2.0334 60 60 60
2.7985 -3.2533 -0.0403 60 60 60
22.3882 -15.4546 5.1207 60 60 60
0.6840 0.5350 1.4963 60 60 60
1.6635 0.0167 1.5387 60 60 60
-6.6835 1.4959 2.9333 60 60 60
-4.1700 -18.2055 3.7931 60 60 60
3.8805 8.9578 3.5051 60 60 60
5.9493 -0.8268 0.0115 60 60 60
1.4106 0.3923 1.4902 60 60 60
-21.4764 3.4811 -0.2908 60 60 60
5.0827 3.5306 -0.0469 60 60 60
0.3440 2.2158 0.6583 60 60 60
-3.1299 1.8426 2.6751 60 60 60
-0.1126 2.0478 0.9970 60 60 60
1.2661 -4.0715 1.0443 60 60 60
7.4000 6.7921 0.0190 60 60 60
8.3178 6.5938 -0.1107 60 60 60
5.0278 1.9474 -0.0016 60 60 60
0.9858 -0.0000 1.8402 60 60 60
-2.3535 -10.9164 3.8430 60 60 60
17.5769 -12.1868 0.5565 60 60 60
-1.4259 2.5276 2.2869 60 60 60
8.7377 5.4861 -0.0744 60 60 60
-5.3002 -3.8361 0.0269 60 60 60
1.2935 8.3122 2.8248 60 60 60
0.9858 -0.0000 1.8402 60 60 60
-2.8385 -3.4174 0.0260 60 60 60
4.8849 2.3233 -0.0117 60 60 60
0.9858 -0.0000 1.8402 60 60 60
0.1976 2.1276 0.7529 60 60 60
5.4491 9.2163 3.5867 60 60 60
22.0495 -17.8423 0.8118 60 60 60
6.1518 1.8319 0.0123 60 60 60
-0.8602 3.8179 1.7392 60 60 60
-1.9775 1.9129 1.9830 60 60 60
0.3734 2.1573 1.5601 60 60 60
0.5546 -0.4376 1.5004 60 60 60
2.2762 -4.0564 0.3198 60 60 60
1.6867 0.2528 1.4479 60 60 60
-3.9262 -3.5611 0.0277 60 60 60
1.4242 0.3672 1.5108 60 60 60
2.4217 -3.9898 1.6631 60 60 60
-1.4136 2.8405 2.0462 60 60 60
1.4609 -0.2727 1.5016 60 60 60
0.9858 -0.0000 1.8402 60 60 60
0.9858 -0.0000 1.8402 60 60 60
1.5362 4.9706 -0.1272 60 60 60
-2.9113 -0.9018 1.0780 60 60 60
0.9858 -0.0000 1.8402 60 60 60
0.9858 -0.0000 1.8402 60 60 60
18.0324 -10.0903 1.0210 60 60 60
1.0424 -3.4546 -0.0161 60 60 60
0.9858 -0.0000 1.8402 60 60 60
4.6624 2.8233 -0.0334 60 60 60
1.4781 0.2135 1.4912 60 60 60
1.1154 8.7141 -0.2058 60 60 60
1.3038 -0.4602 1.4860 60 60 60
0.1665 8.1129 1.1412 60 60 60
0.4205 -0.3875 1.5071 60 60 60
5.4196 -4.9430 0.0317 60 60 60
0.8204 -4.4118 -0.0128 60 60 60
-4.0328 0.1084 1.4885 60 60 60
-6.1149 -9.2809 0.5022 60 60 60
-0.1815 2.0482 1.4012 60 60 60
-2.4442 -7.9798 0.1326 60 60 60
0.9858 -0.0000 1.8402 60 60 60
1.3347 -10.2043 2.0307 60 60 60
5.8864 -3.9338 -0.0630 60 60 60
1.5541 -0.0155 1.5210 60 60 60
-1.0419 2.0455 2.4873 60 60 60
5.1770 5.2355 -0.1087 60 60 60
-5.5470 -18.6536 2.0866 60 60 60
-2.2647 1.8075 0.5642 60 60 60
1.2416 -3.4299 -0.0196 60 60 60
0.2438 0.2163 1.5163 60 60 60
11.8951 10.1796 2.4086 60 60 60
0.2447 0.1844 1.5204 60 60 60
0.9858 -0.0000 1.8402 60 60 60
0.1070 2.7141 0.5475 60 60 60
6.7709 -5.5300 0.0352 60 60 60
-15.0535 -12.7934 3.5040 60 60 60
0.9858 -0.0000 1.8402 60 60 60
0.9858 -0.0000 1.8402 60 60 60
-1.7981 1.8959 1.5825 60 60 60
0.9858 -0.0000 1.8402 60 60 60
0.9858 -0.0000 1.8402 60 60 60
-1.5839 3.9915 0.7353 60 60 60
0.1254 1.9374 1.9351 60 60 60
0.0304 -7.7479 0.5777 60 60 60
3.3748 -4.1412 -0.0420 60 60 60
0.9858 -0.0000 1.8402 60 60 60
-11.5041 -4.1968 0.5612 60 60 60
1.5072 -4.0913 0.2959 60 60 60
-1.4510 3.2435 1.4899 60 60 60
-2.7226 1.7935 1.2457 60 60 60
-3.0392 -0.1773 1.0796 60 60 60
0.2408 2.0831 1.2490 60 60 60
0.4870 8.2148 1.8877 60 60 60
0.9858 -0.0000 1.8402 60 60 60
1.6893 0.1016 1.5047 60 60 60
0.2702 2.1340 1.3479 60 60 60
-1.8904 1.8646 1.1729 60 60 60
-0.2186 2.0315 1.4020 60 60 60
0.9858 -0.0000 1.8402 60 60 60
1.4159 0.4564 1.4823 60 60 60
0.9858 -0.0000 1.8402 60 60 60
0.3767 2.1292 1.0722 60 60 60
-2.5731 1.8061 1.3578 60 60 60
-1.8526 1.8536 0.9304 60 60 60
-6.7718 -11.4681 3.4611 60 60 60
-0.5832 -4.3071 -0.0069 60 60 60
0.9858 -0.0000 1.8402 60 60 60
3.1181 -3.2993 -0.0420 60 60 60
-4.7892 -3.3424 0.0363 60 60 60
1.4720 3.5298 -0.0723 60 60 60
-3.1335 1.7098 0.3201 60 60 60
1.0913 3.4019 -0.0679 60 60 60
5.3005 2.1057 -0.0010 60 60 60
1.4345 6.5341 -0.2072 60 60 60
-6.1615 1.1631 -0.0579 60 60 60
2.2672 -6.2931 0.2340 60 60 60
0.0553 -3.0307 0.0032 60 60 60
1.5813 -0.0413 1.5230 60 60 60
2.3378 4.6322 -0.1027 60 60 60
-1.1110 -4.1961 0.1033 60 60 60
1.4379 -3.3905 -0.0210 60 60 60
2.0814 8.6010 2.4221 60 60 60
-5.4896 0.7498 -0.0313 60 60 60
3.6633 -9.8661 1.6866 60 60 60
1.6380 -0.1078 1.4692 60 60 60
1.3530 0.3872 1.5016 60 60 60
0.9858 -0.0000 1.8402 60 60 60
21.7142 -17.8703 5.9570 60 60 60
0.7893 3.9026 -0.0984 60 60 60
0.9858 -0.0000 1.8402 60 60 60
0.9538 2.3449 1.2346 60 60 60
3.6454 -9.8856 0.9700 60 60 60
-1.4970 3.7161 2.8140 60 60 60
18.2800 -31.1883 5.9476 60 60 60
-2.8619 1.8015 1.7268 60 60 60
7.5634 9.4462 1.5641 60 60 60
1.5905 8.4209 2.8258 60 60 60
1.4428 -0.4069 1.5043 60 60 60
0.1877 0.4126 1.4850 60 60 60
-9.8179 -5.1572 0.9307 60 60 60
-0.4148 2.6950 0.4894 60 60 60
0.9858 -0.0000 1.8402 60 60 60
1.4451 -0.2897 1.5052 60 60 60
1.0938 -0.4383 1.5779 60 60 60
-3.5935 -2.5056 0.0331 60 60 60
-0.0087 3.8695 -0.0966 60 60 60
-1.5283 -4.2290 0.2909 60 60 60
-1.3575 2.3809 2.4283 60 60 60
-3.6793 0.0988 1.2939 60 60 60
1.6312 -3.5468 -0.0231 60 60 60
-3.0402 1.8073 1.9293 60 60 60
-3.9536 1.6494 0.7234 60 60 60
0.4375 0.2465 1.5180 60 60 60
-9.5184 -11.9631 1.1777 60 60 60
-4.4513 -11.2592 3.2279 60 60 60
2.5964 -10.0692 1.0210 60 60 60
0.8568 -4.5965 0.3951 60 60 60
1.5058 -0.1181 1.4900 60 60 60
-13.7068 -12.5798 3.3872 60 60 60
3.4790 4.3138 -0.0920 60 60 60
2.3097 3.4047 -0.0606 60 60 60
4.3129 -5.0619 1.1036 60 60 60
1.3145 -5.9622 0.2398 60 60 60
-5.7191 -3.1496 0.0373 60 60 60
7.9196 9.2801 -0.0891 60 60 60
2.0420 5.7219 -0.1636 60 60 60
-7.5581 -3.8404 1.1334 60 60 60
2.3728 9.2155 -0.1811 60 60 60
1.5494 0.0417 1.5232 60 60 60
0.5159 0.4292 1.5121 60 60 60
0.8295 8.9213 2.2906 60 60 60
1.2816 0.4550 1.5010 60 60 60
1.4982 0.4248 1.5353 60 60 60
-1.0669 -10.6515 0.6361 60 60 60
0.0603 0.2091 1.4939 60 60 60
-1.4071 1.9058 1.2370 60 60 60
0.9858 -0.0000 1.8402 60 60 60
2.3601 -9.9975 3.1646 60 60 60
-5.1732 1.5321 0.9417 60 60 60
5.3426 -5.0947 -1.8040 60 60 60
0.7676 2.2725 1.4270 60 60 60
1.4109 0.3656 1.4999 60 60 60
0.0858 1.8378 2.2751 60 60 60
5.9546 9.1856 3.3503 60 60 60
-1.0020 -2.7982 0.0182 60 60 60
5.7147 -5.5217 0.0462 60 60 60
0.9858 -0.0000 1.8402 60 60 60
-9.0316 -4.8457 0.4696 60 60 60
4.6574 7.2605 -0.0463 60 60 60
12.8711 10.2206 2.4162 60 60 60
1.0066 0.4451 1.5760 60 60 60
-17.9264 -11.4312 0.6230 60 60 60
-2.8451 1.8850 2.8357 60 60 60
0.8569 2.7444 1.4028 60 60 60
-0.4689 8.0872 2.5073 60 60 60
3.9646 -3.6732 -0.0528 60 60 60
0.9858 -0.0000 1.8402 60 60 60
15.6231 -8.6732 0.3403 60 60 60
1.6684 -0.0316 1.5361 60 60 60
1.7898 9.5942 1.1577 60 60 60
0.9858 -0.0000 1.8402 60 60 60
0.9858 -0.0000 1.8402 60 60 60
0.1683 2.3209 2.1152 60 60 60
9.6507 6.5860 -0.0809 60 60 60
1.3091 -4.1107 0.0836 60 60 60
0.9858 -0.0000 1.8402 60 60 60
-1.9440 1.9684 2.6530 60 60 60
0.7609 2.7919 1.4652 60 60 60
0.9858 -0.0000 1.8402 60 60 60
0.3768 -0.4602 1.4897 60 60 60
2.0794 -7.2306 0.3859 60 60 60
1.6152 0.0460 1.5237 60 60 60
-0.5492 -10.6266 0.8769 60 60 60
-0.1094 2.6068 0.6494 60 60 60
5.1837 -2.4613 -0.0323 60 60 60
-0.4717 2.6628 0.5768 60 60 60
0.9858 -0.0000 1.8402 60 60 60
-2.0579 -8.2643 0.7193 60 60 60
0.2925 -0.4478 1.4863 60 60 60
8.4460 -6.1993 0.1035 60 60 60
1.3865 0.4673 1.4903 60 60 60
3.5544 -4.5799 1.0918 60 60 60
-3.6461 1.6693 0.9027 60 60 60
1.5656 -0.0433 1.4955 60 60 60
-1.6951 1.9879 2.6048 60 60 60
1.5887 0.0886 1.4798 60 60 60
4.5407 8.9789 1.7026 60 60 60
-0.8382 -3.6260 0.0061 60 60 60
0.5911 2.1234 0.9658 60 60 60
3.8044 -9.7626 3.1071 60 60 60
-2.5276 -1.1807 0.7623 60 60 60
1.8119 -4.1896 -0.0055 60 60 60
-3.1470 -4.3451 0.0091 60 60 60
5.1584 1.5459 0.0035 60 60 60
2.3744 3.9401 -0.0853 60 60 60
4.8768 -1.5955 -0.0189 60 60 60
11.7856 -15.7872 0.3985 60 60 60
1.5719 -0.0196 1.5286 60 60 60
-0.0684 2.0491 1.0022 60 60 60
0.4925 -0.0002 1.5923 60 60 60
8.7746 9.6056 0.9303 60 60 60
0.9858 -0.0000 1.8402 60 60 60
1.1734 -0.4924 1.5134 60 60 60
4.0887 -4.0590 -0.0627 60 60 60
0.9858 -0.0000 1.8402 60 60 60
5.7052 8.8585 -0.0080 60 60 60
1.3685 -3.8327 -0.0213 60 60 60
-1.3262 2.2476 1.2725 60 60 60
2.4393 9.6795 0.4241 60 60 60
1.1314 -10.2057 2.9972 60 60 60
-1.1005 2.2308 0.6014 60 60 60
0.9858 -0.0000 1.8402 60 60 60
-0.2294 -6.8388 0.2303 60 60 60
0.3216 2.0718 0.9735 60 60 60
1.6358 9.5774 1.3907 60 60 60
0.9858 -0.0000 1.8402 60 60 60
-8.8863 -3.5100 1.0667 60 60 60
2.2898 -3.7513 0.0948 60 60 60
0.2355 2.0799 1.1376 60 60 60
1.4915 0.1776 1.4905 60 60 60
0.1594 0.2516 1.5013 60 60 60
-1.5474 8.0017 2.3735 60 60 60
-1.9558 1.9018 2.0636 60 60 60
0.9858 -0.0000 1.8402 60 60 60
0.1573 2.1023 1.3512 60 60 60
5.5504 -4.8552 0.0200 60 60 60
-7.0401 -11.5754 0.5345 60 60 60
-1.3264 3.5210 1.9577 60 60 60
2.1933 -6.3066 0.2379 60 60 60
5.0514 -0.5765 0.0139 60 60 60
1.2858 -0.4686 1.4889 60 60 60
10.5327 7.8743 -0.0312 60 60 60
-2.7449 1.7605 0.7454 60 60 60
0.6992 2.1358 1.1330 60 60 60
3.1302 4.1594 -0.0898 60 60 60
-9.0531 -11.7007 4.8180 60 60 60
6.1310 3.4596 -0.0294 60 60 60
0.6450 2.1225 1.2470 60 60 60
-2.9685 -4.4204 0.4665 60 60 60
0.3957 0.3119 1.5207 60 60 60
0.3562 -7.6540 0.5834 60 60 60
3.7016 4.1250 -0.0885 60 60 60
2.4188 3.6061 -0.0673 60 60 60
3.5151 -9.7880 3.3527 60 60 60
0.1229 -0.0933 1.5004 60 60 60
-4.0884 1.6337 0.8275 60 60 60
0.9858 -0.0000 1.8402 60 60 60
0.9858 -0.0000 1.8402 60 60 60
0.9858 -0.0000 1.8402 60 60 60
5.7593 -1.9895 -0.0262 60 60 60
0.9858 -0.0000 1.8402 60 60 60
-0.9259 2.0442 2.4663 60 60 60
18.0951 -11.2227 1.9689 60 60 60
10.0800 9.8382 1.1371 60 60 60
5.1903 -4.4778 0.0071 60 60 60
4.3134 -3.2399 -0.0389 60 60 60
11.5511 -19.2739 0.2657 60 60 60
12.5876 -9.8487 0.2049 60 60 60
4.1717 8.8431 0.3943 60 60 60
1.4302 3.5310 -0.0676 60 60 60
-2.5974 1.8747 2.2009 60 60 60
2.9928 3.2075 -0.0556 60 60 60
0.9019 -3.4768 -0.0200 60 60 60
0.9858 -0.0000 1.8402 60 60 60
-1.7210 1.9124 1.5852 60 60 60
2.4526 9.6495 -0.0411 60 60 60
1.6869 0.0928 1.5063 60 60 60
-3.9163 -4.5934 1.8972 60 60 60
-10.6133 -4.2757 1.2131 60 60 60
-1.3666 2.3253 1.8017 60 60 60
0.4138 -5.3097 0.4518 60 60 60
0.9858 -0.0000 1.8402 60 60 60
-3.6388 -11.1689 2.8679 60 60 60
0.9858 -0.0000 1.8402 60 60 60
0.1458 -0.0136 1.5989 60 60 60
0.9858 -0.0000 1.8402 60 60 60
0.5952 -0.4547 1.5066 60 60 60
4.7455 -4.2517 0.0078 60 60 60
0.9858 -0.0000 1.8402 60 60 60
3.1949 -3.8891 -0.0405 60 60 60
3.2596 8.6665 2.8088 60 60 60
2.8342 9.8112 1.7841 60 60 60
0.5430 2.1537 1.5062 60 60 60
-0.5377 -3.7532 -0.0073 60 60 60
-1.2721 2.0781 2.1664 60 60 60
-2.0393 1.9521 2.5826 60 60 60
4.0014 -9.8273 0.9506 60 60 60
22.4151 -19.4643 1.4628 60 60 60
-0.0121 -3.1974 0.0036 60 60 60
-6.3328 -9.3417 0.4868 60 60 60
9.1177 6.9635 -0.0294 60 60 60
0.9858 -0.0000 1.8402 60 60 60
5.4991 -1.4862 -0.0068 60 60 60
-2.2248 -4.9358 -0.0033 60 60 60
0.1410 -4.6838 0.3808 60 60 60
-4.1344 -1.0550 1.5872 60 60 60
-0.1737 2.0507 1.2864 60 60 60
5.4169 8.9726 2.8313 60 60 60
0.2530 -3.0665 0.0011 60 60 60
1.4760 -0.2437 1.5010 60 60 60
-3.9265 1.7663 2.8126 60 60 60
-0.3341 2.0108 0.8478 60 60 60
1.1709 0.4750 1.5277 60 60 60
-2.5273 -0.9184 0.8800 60 60 60
5.6940 -3.2243 -0.0457 60 60 60
0.9858 -0.0000 1.8402 60 60 60
-3.4474 -4.0617 0.0200 60 60 60
0.0772 1.8904 1.8879 60 60 60
-2.6381 1.8236 1.6356 60 60 60
0.9858 -0.0000 1.8402 60 60 60
0.9858 -0.0000 1.8402 60 60 60
0.2095 -0.0260 1.5775 60 60 60
-1.2740 8.0270 1.9687 60 60 60
7.2985 -6.1174 0.0746 60 60 60
-2.5387 1.8602 1.9162 60 60 60
0.9080 2.1959 1.1081 60 60 60
3.7266 6.6695 -0.1640 60 60 60
-4.0914 -4.6449 1.7403 60 60 60
-1.1841 2.0602 2.4421 60 60 60
-87.0854 7.0646 1.8163 60 60 60
0.3338 -0.3412 1.5064 60 60 60
30.9342 20.3778 0.5153 60 60 60
-5.9420 -0.5717 1.1863 60 60 60
-1.4504 3.1692 2.5275 60 60 60
-3.0927 1.8026 1.9307 60 60 60
-2.7137 -1.0138 1.0135 60 60 60
2.0491 3.7897 -0.0719 60 60 60
0.0812 1.7871 1.9810 60 60 60
5.2892 -3.0617 -0.0398 60 60 60
-1.4396 2.5961 2.2096 60 60 60
0.2475 0.0171 1.5711 60 60 60
0.4414 -0.2961 1.5232 60 60 60
4.6984 3.4009 -0.0442 60 60 60
-0.7430 2.7970 0.3893 60 60 60
-1.3852 2.7244 1.7896 60 60 60
0.9858 -0.0000 1.8402 60 60 60
0.9858 -0.0000 1.8402 60 60 60
5.3626 3.8976 -0.0499 60 60 60
-1.2557 2.1189 0.6785 60 60 60
3.6031 3.7431 -0.0729 60 60 60
0.9858 -0.0000 1.8402 60 60 60
-2.7195 1.7885 1.1487 60 60 60
0.9858 -0.0000 1.8402 60 60 60
-2.6879 -4.4140 1.0563 60 60 60
-2.8090 -1.4249 0.9599 60 60 60
11.0180 -23.1357 0.7199 60 60 60
4.1599 -3.4758 -0.0544 60 60 60
-3.5356 1.8093 2.8624 60 60 60
0.9858 -0.0000 1.8402 60 60 60
14.3500 -12.0221 0.3445 60 60 60
-1.1510 2.5163 0.6714 60 60 60
-4.9092 -17.3847 1.2043 60 60 60
0.9858 -0.0000 1.8402 60 60 60
1.4752 0.2470 1.5025 60 60 60
0.9858 -0.0000 1.8402 60 60 60
0.4893 2.1069 0.9101 60 60 60
0.9858 -0.0000 1.8402 60 60 60
1.2999 -0.4833 1.4947 60 60 60
-1.6475 -8.1192 0.1257 60 60 60
-1.4552 1.9294 1.3758 60 60 60
22.8707 -13.6048 5.0000 60 60 60
2.3309 -4.0107 0.1004 60 60 60
3.3384 2.8966 -0.0520 60 60 60
-3.4271 -1.4592 1.1696 60 60 60
0.9858 -0.0000 1.8402 60 60 60
2.1468 8.6208 2.6245 60 60 60
4.3843 2.1168 -0.0131 60 60 60
0.9858 -0.0000 1.8402 60 60 60
0.1787 0.0282 1.5880 60 60 60
0.1105 -0.0794 1.5426 60 60 60
-1.5066 1.9054 0.9921 60 60 60
7.5513 6.7906 -0.0052 60 60 60
5.0772 -2.6654 -0.0332 60 60 60
-1.8213 -4.1950 0.0014 60 60 60
5.7434 -4.7182 0.0022 60 60 60
0.9858 -0.0000 1.8402 60 60 60
0.9858 -0.0000 1.8402 60 60 60
18.2940 11.9756 0.0902 60 60 60
3.3984 8.8321 2.6094 60 60 60
0.4139 -0.3968 1.5017 60 60 60
0.4730 0.3121 1.5166 60 60 60
-1.1805 3.4541 1.7606 60 60 60
2.2242 8.6421 3.0365 60 60 60
-1.4191 2.8388 2.3974 60 60 60
6.1893 -3.3835 -0.0561 60 60 60
-32.4734 -10.1985 2.5450 60 60 60
0.9858 -0.0000 1.8402 60 60 60
3.2449 3.3329 -0.0687 60 60 60
-0.2002 -4.9268 0.3011 60 60 60
-3.9551 0.4674 1.1412 60 60 60
-2.2236 1.8351 1.3017 60 60 60
4.4239 8.8110 2.8131 60 60 60
0.3585 -0.4357 1.4906 60 60 60
0.9858 -0.0000 1.8402 60 60 60
-7.8008 -11.5542 4.9642 60 60 60
0.3161 2.2191 1.8239 60 60 60
7.7147 9.6964 3.7747 60 60 60
3.1150 8.7806 2.6112 60 60 60
5.5525 -3.4951 -0.0521 60 60 60
-8.4982 -11.7798 2.5956 60 60 60
5.1421 1.6524 -0.0037 60 60 60
0.9858 -0.0000 1.8402 60 60 60
-2.7747 1.7742 1.3398 60 60 60
0.9858 -0.0000 1.8402 60 60 60
1.4010 7.1242 -0.2062 60 60 60
4.1408 -5.0716 0.4002 60 60 60
3.7349 -4.2278 -0.0225 60 60 60
0.9858 -0.0000 1.8402 60 60 60
4.0793 -9.7824 1.9060 60 60 60
-6.0373 1.4735 1.6683 60 60 60
0.9858 -0.0000 1.8402 60 60 60
1.9677 0.2329 1.3362 60 60 60
-1.5231 3.5381 2.3732 60 60 60
0.9858 -0.0000 1.8402 60 60 60
0.9858 -0.0000 1.8402 60 60 60
-0.1310 8.0985 1.7260 60 60 60
0.2494 0.0213 1.5718 60 60 60
0.0932 -10.5151 1.1113 60 60 60
0.9858 -0.0000 1.8402 60 60 60
7.6583 9.3430 2.9001 60 60 60
2.9757 9.7640 0.3741 60 60 60
0.9181 2.2918 1.3068 60 60 60
-4.0988 1.6631 0.5628 60 60 60
2.4736 -10.1656 0.5384 60 60 60
0.0690 0.1961 1.4981 60 60 60
0.9858 -0.0000 1.8402 60 60 60
0.6678 2.1374 1.2426 60 60 60
1.2658 0.4915 1.4886 60 60 60
0.1568 2.0714 1.1348 60 60 60
1.4976 0.2000 1.5003 60 60 60
1.4896 -7.3659 0.5792 60 60 60
0.9858 -0.0000 1.8402 60 60 60
-3.4344 -4.5448 1.8838 60 60 60
1.9455 0.2762 1.3422 60 60 60
-2.2786 1.8570 1.5596 60 60 60
1.2298 3.4000 -0.0792 60 60 60
0.2325 -3.6700 -0.0135 60 60 60
5.2198 1.2359 0.0134 60 60 60
-9.2988 -13.6717 1.4771 60 60 60
-1.5224 4.0585 0.8434 60 60 60
0.9858 -0.0000 1.8402 60 60 60
-2.2990 -2.6036 0.0288 60 60 60
3.5694 8.7824 1.1056 60 60 60
0.1368 0.0782 1.5520 60 60 60
-2.6752 1.7803 0.7589 60 60 60
0.3825 2.1190 1.1329 60 60 60
3.4415 9.2071 -0.0463 60 60 60
2.7676 -10.1185 0.5247 60 60 60
9.9660 -8.5778 0.2344 60 60 60
2.7910 8.7750 3.4708 60 60 60
3.3287 9.7818 2.2305 60 60 60
0.5775 -3.2811 -0.0083 60 60 60
0.1336 -0.0871 1.5048 60 60 60
3.8169 -3.3726 -0.0451 60 60 60
0.1823 0.0191 1.5891 60 60 60
10.8419 -9.0895 0.0995 60 60 60
6.2047 9.1064 1.3819 60 60 60
-1.7165 1.8902 1.2745 60 60 60
1.4790 -3.8104 -0.0229 60 60 60
-3.8866 1.6682 1.1064 60 60 60
0.0896 1.7739 1.7942 60 60 60
0.1584 2.0420 0.7237 60 60 60
0.9858 -0.0000 1.8402 60 60 60
0.9858 -0.0000 1.8402 60 60 60
-5.6179 1.6125 2.9515 60 60 60
5.7608 -5.8880 1.2469 60 60 60
1.3101 -0.4407 1.4930 60 60 60
1.2100 0.5042 1.5004 60 60 60
0.9858 -0.0000 1.8402 60 60 60
6.6161 3.8262 -0.0389 60 60 60
7.3775 9.4928 3.1781 60 60 60
1.6037 0.0562 1.5292 60 60 60
-1.4094 1.8893 1.3123 60 60 60
0.9858 -0.0000 1.8402 60 60 60
-1.3904 2.5668 1.6320 60 60 60
4.4654 -4.1303 -0.0383 60 60 60
-2.9973 -0.3358 1.0846 60 60 60
6.0897 9.0407 0.1660 60 60 60
1.6530 -4.0942 0.2795 60 60 60
0.9858 -0.0000 1.8402 60 60 60
0.9858 -0.0000 1.8402 60 60 60
0.9858 -0.0000 1.8402 60 60 60
-3.5722 0.1678 1.1979 60 60 60
3.0880 -3.0202 -0.0350 60 60 60
-2.3790 1.8061 0.8228 60 60 60
0.4348 0.2182 1.5232 60 60 60
-1.5588 3.8168 1.3262 60 60 60
-1.8925 1.9718 2.3900 60 60 60
4.0810 3.6809 -0.0628 60 60 60
0.7325 -10.3669 1.8208 60 60 60
0.2211 -0.1538 1.5128 60 60 60
1.6046 0.2156 1.4753 60 60 60
-0.9375 3.5391 1.6582 60 60 60
-0.2606 2.0344 0.9805 60 60 60
-1.6604 8.0928 3.5982 60 60 60
3.3983 -4.2898 0.0358 60 60 60
-0.5452 2.6164 0.5825 60 60 60
0.9858 -0.0000 1.8402 60 60 60
1.8211 0.4616 1.3697 60 60 60
0.9858 -0.0000 1.8402 60 60 60
0.2513 2.1006 1.2999 60 60 60
4.6531 -1.4291 -0.0122 60 60 60
5.1093 9.0445 1.4453 60 60 60
-0.9593 8.0205 1.3769 60 60 60
-2.7388 0.0059 0.9563 60 60 60
0.8889 2.2040 1.2188 60 60 60
0.9858 -0.0000 1.8402 60 60 60
-5.7289 -3.1062 0.0406 60 60 60
1.4871 0.5082 1.5160 60 60 60
4.1193 3.6397 -0.0627 60 60 60
0.9858 -0.0000 1.8402 60 60 60
-0.0655 -6.8228 0.2324 60 60 60
0.3210 -5.3080 0.4541 60 60 60
0.9858 -0.0000 1.8402 60 60 60
0.7479 2.1464 0.8983 60 60 60
-0.9007 3.4908 1.8457 60 60 60
3.0486 9.8644 2.2447 60 60 60
0.0713 -0.3127 1.4842 60 60 60
-0.2222 -4.3879 -0.0131 60 60 60
-4.1421 -2.4392 0.0295 60 60 60
1.4547 0.2624 1.4925 60 60 60
1.9559 0.2362 1.3416 60 60 60
0.9858 -0.0000 1.8402 60 60 60
1.8315 -0.1093 1.4123 60 60 60
0.0904 -3.4322 -0.0086 60 60 60
10.9021 9.9835 1.4112 60 60 60
-3.3041 -0.1879 1.1323 60 60 60
-6.9587 0.9709 -0.0591 60 60 60
-0.6016 -4.1483 0.1738 60 60 60
3.6790 4.1426 -0.0880 60 60 60
4.0979 7.9040 -0.0934 60 60 60
7.4305 6.9040 0.0010 60 60 60
5.8288 -3.9813 -0.0565 60 60 60
-1.5689 1.9561 1.8895 60 60 60
0.8975 -4.4088 -0.0148 60 60 60
3.4470 8.8672 3.2642 60 60 60
15.5547 -8.8615 0.3411 60 60 60
0.3572 0.2418 1.5194 60 60 60
-5.7867 -1.3144 1.1841 60 60 60
-1.8068 7.9937 3.1878 60 60 60
0.5119 2.1057 0.8516 60 60 60
1.3019 -3.6258 -0.0216 60 60 60
3.9420 7.1680 -0.1211 60 60 60
2.3776 -3.9938 0.0982 60 60 60
2.7177 0.2924 1.0116 60 60 60
0.9858 -0.0000 1.8402 60 60 60
-1.2609 1.9384 1.1792 60 60 60
-0.0949 8.0964 1.5331 60 60 60
0.9594 9.5119 1.8697 60 60 60
-1.4850 3.6885 2.6994 60 60 60
3.0696 9.8008 0.8367 60 60 60
0.9858 -0.0000 1.8402 60 60 60
10.0362 8.0430 2.5735 60 60 60
-4.2064 -3.2046 0.0314 60 60 60
0.9858 -0.0000 1.8402 60 60 60
5.5467 1.0127 0.0260 60 60 60
0.9858 -0.0000 1.8402 60 60 60
1.5064 -0.0988 1.4921 60 60 60
9.1798 9.6658 0.6009 60 60 60
0.2615 0.2988 1.5106 60 60 60
-3.7519 -2.2511 0.0325 60 60 60
-1.2545 1.9702 1.0277 60 60 60
2.6126 -3.3708 -0.0389 60 60 60
8.3273 -17.2688 0.1328 60 60 60
0.0990 0.3852 1.4850 60 60 60
8.0220 -5.3146 0.0380 60 60 60
-5.0385 1.5305 0.8123 60 60 60
1.5306 0.4244 1.5424 60 60 60
0.3030 -0.0233 1.5357 60 60 60
0.2063 2.0577 0.7225 60 60 60
1.8934 0.3388 1.3586 60 60 60
8.5369 9.6965 1.8054 60 60 60
4.8992 1.4009 0.0094 60 60 60
0.9858 -0.0000 1.8402 60 60 60
2.6920 -9.9606 2.6742 60 60 60
1.2401 -0.5307 1.4914 60 60 60
-2.5636 -7.0864 0.1109 60 60 60
4.3974 -3.6889 -0.0490 60 60 60
-2.5366 -4.2487 -0.0016 60 60 60
0.9858 -0.0000 1.8402 60 60 60
-3.0072 1.8335 2.3392 60 60 60
0.9858 -0.0000 1.8402 60 60 60
0.9858 -0.0000 1.8402 60 60 60
4.6566 4.9428 -0.0957 60 60 60
2.2750 -4.0261 1.5709 60 60 60
2.5563 6.6510 -0.1788 60 60 60
0.9858 -0.0000 1.8402 60 60 60
0.9858 -0.0000 1.8402 60 60 60
3.9012 8.9282 3.0514 60 60 60
-1.7350 -3.1150 0.0217 60 60 60
5.0151 -0.9669 -0.0001 60 60 60
0.9858 -0.0000 1.8402 60 60 60
0.9858 -0.0000 1.8402 60 60 60
-1.1943 2.0425 2.3699 60 60 60
4.7994 4.7766 -0.0907 60 60 60
3.3056 -4.1903 -0.0417 60 60 60
2.0167 9.5859 0.2350 60 60 60
2.1469 9.6212 0.4513 60 60 60
0.2685 0.3057 1.5120 60 60 60
0.3582 2.0914 1.0271 60 60 60
0.4520 -0.2162 1.5303 60 60 60
0.2128 0.0005 1.5788 60 60 60
-1.0086 4.2674 2.3862 60 60 60
1.4911 -10.1251 3.2117 60 60 60
-1.4598 1.9026 1.2302 60 60 60
6.7301 -14.7072 0.0525 60 60 60
0.9858 -0.0000 1.8402 60 60 60
22.1419 -16.4320 4.5632 60 60 60
-5.6552 -6.8657 0.1063 60 60 60
0.9547 -4.6105 0.1460 60 60 60
3.0642 -4.2783 1.0596 60 60 60
9.0730 -5.3935 0.0732 60 60 60
1.5334 -0.0638 1.4959 60 60 60
-1.5310 3.5933 2.3784 60 60 60
1.6447 4.5639 -0.1081 60 60 60
0.9076 8.4746 3.4686 60 60 60
-1.2452 -4.1706 0.2190 60 60 60
-20.4660 -7.2097 0.1766 60 60 60
0.6260 -0.4996 1.4948 60 60 60
-3.1513 -2.4810 0.0371 60 60 60
-0.5976 -4.1915 0.7306 60 60 60
-1.3535 1.9763 2.0256 60 60 60
0.9858 -0.0000 1.8402 60 60 60
8.4780 -6.1508 0.1029 60 60 60
6.0019 -2.5168 -0.0319 60 60 60
0.4651 0.3300 1.5259 60 60 60
-5.7748 -4.6815 0.0028 60 60 60
17.0579 -39.8159 4.9803 60 60 60
0.3239 2.1828 1.7709 60 60 60
0.5682 -4.4084 0.1159 60 60 60
0.9858 -0.0000 1.8402 60 60 60
0.7403 8.3985 3.0594 60 60 60
9.0819 -11.6316 2.0916 60 60 60
0.9858 -0.0000 1.8402 60 60 60
-0.6817 8.0683 2.1330 60 60 60
0.7581 -7.5589 0.5839 60 60 60
1.3791 -0.3776 1.4900 60 60 60
-9.4972 -11.9512 1.5480 60 60 60
0.9858 -0.0000 1.8402 60 60 60
-4.3774 -8.8630 0.3635 60 60 60
0.9858 -0.0000 1.8402 60 60 60
16.5717 -37.8939 5.7914 60 60 60
0.9858 -0.0000 1.8402 60 60 60
1.4095 0.5232 1.4790 60 60 60
0.2129 -7.7166 0.2031 60 60 60
1.5100 9.4924 0.2809 60 60 60
-2.6400 -13.7746 1.3020 60 60 60
5.6631 5.6929 -0.1189 60 60 60
-0.8097 4.0170 1.8330 60 60 60
0.1359 -0.0724 1.5063 60 60 60
0.9858 -0.0000 1.8402 60 60 60
-0.0938 2.0468 1.0601 60 60 60
13.2350 10.2359 1.3040 60 60 60
0.9858 -0.0000 1.8402 60 60 60
0.9880 5.1208 -0.1444 60 60 60
-2.1636 1.9303 2.6039 60 60 60
6.5189 -11.7131 0.0303 60 60 60
0.3061 -0.2492 1.5143 60 60 60
-2.3646 -8.3456 0.7074 60 60 60
-1.7996 -12.2590 1.0527 60 60 60
-29.8615 3.3436 -0.3337 60 60 60
4.3389 3.3424 -0.0505 60 60 60
8.4219 -9.1979 0.0801 60 60 60
21.8836 -17.4217 4.6312 60 60 60
9.6862 -8.7407 2.8501 60 60 60
-1.4317 2.8851 1.4332 60 60 60
-1.3865 2.6467 2.4606 60 60 60
0.9858 -0.0000 1.8402 60 60 60
0.2709 0.1226 1.5170 60 60 60
1.3722 0.3796 1.4956 60 60 60
20.8179 -21.3007 6.3163 60 60 60
-0.0585 2.0236 0.6971 60 60 60
-0.0383 2.0654 1.4055 60 60 60
0.9858 -0.0000 1.8402 60 60 60
-9.7479 -11.8868 3.4251 60 60 60
1.5167 0.0497 1.4900 60 60 60
0.9858 -0.0000 1.8402 60 60 60
0.8418 -4.0905 1.9297 60 60 60
-4.0337 -3.4241 0.0305 60 60 60
-0.0766 2.0879 1.4556 60 60 60
-2.5219 -0.9604 0.8778 60 60 60
-8.6127 -11.8359 0.4725 60 60 60
-1.5387 3.6476 0.9223 60 60 60
0.9858 -0.0000 1.8402 60 60 60
-2.5583 1.8348 1.6381 60 60 60
1.0082 -10.3743 1.0816 60 60 60
4.6907 6.3966 -0.0745 60 60 60
-14.4468 -12.8321 0.6462 60 60 60
0.9858 -0.0000 1.8402 60 60 60
-14.5253 -12.6822 3.9266 60 60 60
4.9870 -1.0357 0.0053 60 60 60
0.9858 -0.0000 1.8402 60 60 60
-1.4510 3.1284 1.5002 60 60 60
-0.2303 -2.9621 0.0023 60 60 60
0.7247 2.1851 1.4443 60 60 60
0.1708 2.1207 1.4572 60 60 60
-0.1520 2.0670 1.2845 60 60 60
0.1846 -0.0499 1.5261 60 60 60
0.9858 -0.0000 1.8402 60 60 60
-0.7014 -7.9559 0.3623 60 60 60
-90.6297 0.9656 -0.3175 60 60 60
3.9613 4.9827 -0.1081 60 60 60
-1.0886 3.4214 1.5735 60 60 60
-1.3634 1.9397 1.5999 60 60 60
0.3977 0.3549 1.5104 60 60 60
1.5263 -0.2684 1.4854 60 60 60
0.9858 -0.0000 1.8402 60 60 60
0.9858 -0.0000 1.8402 60 60 60
-13.5878 -12.3887 5.6425 60 60 60
3.9463 -5.9279 0.2680 60 60 60
3.2152 -3.5354 -0.0423 60 60 60
5.6365 3.3788 -0.0332 60 60 60
4.1059 -3.5406 -0.0562 60 60 60
4.9718 5.4859 -0.1172 60 60 60
0.1157 1.9365 1.9855 60 60 60
-4.2010 -0.1256 1.5968 60 60 60
3.6655 -4.6721 1.8273 60 60 60
0.4913 -0.0763 1.6025 60 60 60
8.5627 -8.8339 0.0967 60 60 60
1.4731 0.3686 1.5241 60 60 60
-3.1443 1.8453 2.5696 60 60 60
-2.9091 -1.2137 1.0580 60 60 60
2.2555 -3.5409 -0.0280 60 60 60
-1.0170 -5.8274 0.6075 60 60 60
4.5728 2.3179 -0.0143 60 60 60
-3.9916 -6.7270 0.0765 60 60 60
0.6132 -10.2971 3.5209 60 60 60
5.2288 -3.1718 -0.0421 60 60 60
1.0647 -0.4540 1.5743 60 60 60
-1.2457 1.9414 1.8113 60 60 60
-2.0392 1.8267 0.8057 60 60 60
-1.6156 1.9334 1.6645 60 60 60
2.3018 -10.0130 3.1683 60 60 60
-2.0463 -3.6057 0.0212 60 60 60
6.2776 9.1151 1.3775 60 60 60
0.9858 -0.0000 1.8402 60 60 60
0.4863 0.3198 1.5201 60 60 60
0.9858 -0.0000 1.8402 60 60 60
-2.8180 -3.9946 0.0150 60 60 60
-2.7967 1.7693 1.0391 60 60 60
0.9858 -0.0000 1.8402 60 60 60
-0.9826 3.7253 2.1394 60 60 60
4.0775 8.8771 1.5052 60 60 60
0.9858 -0.0000 1.8402 60 60 60
3.6422 -9.7790 3.5940 60 60 60
0.9858 -0.0000 1.8402 60 60 60
0.2260 0.1218 1.5185 60 60 60
0.2475 2.1172 1.5129 60 60 60
0.9858 -0.0000 1.8402 60 60 60
5.7958 -5.7808 1.6002 60 60 60
0.3637 2.0770 0.5996 60 60 60
-1.2000 2.4524 0.5928 60 60 60
1.4235 5.0138 -0.1335 60 60 60
-0.1381 2.0049 0.6903 60 60 60
-9.4975 -12.0662 0.7996 60 60 60
2.7765 -3.2578 -0.0359 60 60 60
-3.1789 -11.2109 1.4413 60 60 60
20.3332 14.8690 0.9894 60 60 60
0.3160 0.2669 1.5171 60 60 60
0.5121 -0.3823 1.5066 60 60 60
-10.6077 -4.2772 1.5006 60 60 60
-0.5015 -4.1766 1.1688 60 60 60
-30.6667 -17.2457 4.0924 60 60 60
0.9858 -0.0000 1.8402 60 60 60
4.1999 8.8971 1.4982 60 60 60
23.0978 -16.5985 2.6987 60 60 60
0.0434 -3.2145 -0.0000 60 60 60
-3.3348 1.7524 1.6113 60 60 60
0.3107 -7.6664 0.5828 60 60 60
0.1626 8.0928 2.6627 60 60 60
5.3163 -2.1435 -0.0266 60 60 60
-0.3428 2.6863 0.6681 60 60 60
0.9858 -0.0000 1.8402 60 60 60
0.9858 -0.0000 1.8402 60 60 60
0.9179 2.2758 1.0810 60 60 60
1.8609 9.5737 0.4756 60 60 60
3.6238 8.8999 3.2691 60 60 60
0.9858 -0.0000 1.8402 60 60 60
0.9858 -0.0000 1.8402 60 60 60
0.9858 -0.0000 1.8402 60 60 60
1.4996 -3.7963 -0.0187 60 60 60
4.8372 3.9110 -0.0582 60 60 60
0.9858 -0.0000 1.8402 60 60 60
17.7698 -11.4468 1.0291 60 60 60
0.2309 0.0515 1.5241 60 60 60
0.9858 -0.0000 1.8402 60 60 60
2.6349 3.4830 -0.0673 60 60 60
-0.2405 2.1666 2.0198 60 60 60
0.9858 -0.0000 1.8402 60 60 60
1.7815 -4.1011 0.3721 60 60 60
0.3406 2.1220 1.5125 60 60 60
18.2554 12.2506 0.0869 60 60 60
1.6223 5.9088 -0.1834 60 60 60
-2.4055 -1.1603 0.6143 60 60 60
-1.4379 2.9147 0.8822 60 60 60
21.3921 -19.0828 6.0762 60 60 60
5.4459 -3.6689 -0.0544 60 60 60
2.1871 -3.8240 -0.0274 60 60 60
-0.1090 -4.1204 1.3807 60 60 60
7.7995 9.4772 1.0076 60 60 60
3.8333 -9.8426 1.4406 60 60 60
1.5274 0.0604 1.4824 60 60 60
0.9858 -0.0000 1.8402 60 60 60
9.6287 -8.7764 3.1395 60 60 60
-0.3456 -10.5846 1.1234 60 60 60
-1.4033 2.5833 0.8701 60 60 60
7.3217 6.9468 0.0133 60 60 60
11.7087 -19.5347 0.7669 60 60 60
-33.3002 -21.4465 10.0600 60 60 60
0.9858 -0.0000 1.8402 60 60 60
4.5702 -4.7181 0.3905 60 60 60
-12.0968 -3.4155 2.1211 60 60 60
0.4844 -0.3184 1.5172 60 60 60
6.1684 -3.4579 -0.0615 60 60 60
0.9858 -0.0000 1.8402 60 60 60
0.9858 -0.0000 1.8402 60 60 60
-9.0543 -11.7851 3.3558 60 60 60
-1.5601 1.9426 1.7401 60 60 60
0.5927 2.1630 1.5039 60 60 60
1.8234 -3.7142 -0.0257 60 60 60
-3.1700 1.7009 0.4256 60 60 60
0.9858 -0.0000 1.8402 60 60 60
0.4560 -0.3000 1.5284 60 60 60
0.2803 8.1510 1.5153 60 60 60
0.9858 -0.0000 1.8402 60 60 60
-4.7178 1.6759 2.6673 60 60 60
0.4152 -0.2388 1.5256 60 60 60
-3.1006 1.8195 2.3491 60 60 60
4.8060 2.5263 -0.0218 60 60 60
-1.5295 3.5740 1.6618 60 60 60
0.3149 -0.2949 1.5092 60 60 60
8.5661 7.7343 -0.0183 60 60 60
-2.7218 1.8516 2.0173 60 60 60
-12.1770 -3.4343 1.4887 60 60 60
0.9858 -0.0000 1.8402 60 60 60
2.4941 -3.9569 0.8535 60 60 60
1.0765 -0.4320 1.5846 60 60 60
0.2139 -0.1013 1.5141 60 60 60
10.9456 9.9550 0.7505 60 60 60
11.6652 -18.6991 0.2830 60 60 60
3.6164 -9.8579 2.1649 60 60 60
-1.3926 1.9598 1.5245 60 60 60
3.8604 -4.8574 1.0306 60 60 60
0.9989 -10.2452 2.5258 60 60 60
7.9189 -5.4307 0.0443 60 60 60
-1.3615 7.9788 1.9726 60 60 60
-3.9877 0.4498 1.2557 60 60 60
12.7065 7.6467 0.0082 60 60 60
0.9858 -0.0000 1.8402 60 60 60
5.1939 -5.0971 0.0496 60 60 60
-0.1149 -7.7964 0.1935 60 60 60
6.5128 4.0957 -0.0499 60 60 60
9.9948 9.8360 1.4528 60 60 60
-3.5986 1.8038 2.8747 60 60 60
-3.5158 1.7098 0.9222 60 60 60
2.4763 3.3091 -0.0587 60 60 60
2.7100 -4.1400 0.1011 60 60 60
-8.4557 -4.9875 0.0072 60 60 60
0.0723 1.8096 2.0300 60 60 60
2.3572 -4.0295 1.6656 60 60 60
0.9858 -0.0000 1.8402 60 60 60
2.1722 -3.9236 0.0473 60 60 60
4.2429 6.2119 -0.1396 60 60 60
11.1251 10.0444 2.0667 60 60 60
5.1540 6.3205 -0.1401 60 60 60
3.1743 -3.5619 -0.0405 60 60 60
-1.8186 -4.2578 0.2453 60 60 60
0.9858 -0.0000 1.8402 60 60 60
0.2134 2.1260 1.9349 60 60 60
-2.5642 -3.1677 0.0311 60 60 60
1.0870 0.4694 1.5803 60 60 60
-5.5394 -4.9776 -0.0054 60 60 60
2.7394 6.5686 -0.1782 60 60 60
-1.2076 1.9940 1.3920 60 60 60
0.9858 -0.0000 1.8402 60 60 60
2.3120 -9.9640 3.6417 60 60 60
1.1466 -3.8750 -0.0214 60 60 60
-2.0521 7.9795 3.4136 60 60 60
0.9858 -0.0000 1.8402 60 60 60
9.8693 -6.5406 0.1130 60 60 60
-1.8220 1.8420 0.5936 60 60 60
-1.0656 -3.0010 0.0143 60 60 60
0.9858 -0.0000 1.8402 60 60 60
-2.6415 -4.4109 1.0594 60 60 60
-0.0951 2.0795 0.5238 60 60 60
6.3966 -5.8830 0.0541 60 60 60
-6.0757 -4.3841 1.5731 60 60 60
0.1437 2.1013 1.3509 60 60 60
5.0028 9.0127 0.9897 60 60 60
3.2553 8.8116 3.0403 60 60 60
3.6197 5.2804 -0.1201 60 60 60
-17.2428 -13.1823 2.6442 60 60 60
1.5075 -0.3774 1.5226 60 60 60
-15.2067 -12.6563 5.4589 60 60 60
5.9004 1.0576 0.0218 60 60 60
1.0907 -0.4355 1.5800 60 60 60
1.6076 0.3942 1.4571 60 60 60
3.7069 -9.5638 0.0457 60 60 60
-2.0175 1.8762 1.6550 60 60 60
0.0670 -10.3776 3.5654 60 60 60
4.7216 8.9197 0.0993 60 60 60
0.9858 -0.0000 1.8402 60 60 60
1.3875 -10.1128 3.6985 60 60 60
-4.5542 -0.3605 1.3186 60 60 60
0.9858 -0.0000 1.8402 60 60 60
-0.0996 -4.1503 1.8780 60 60 60
2.8510 -4.4491 0.3470 60 60 60
-0.5341 -3.5001 -0.0036 60 60 60
2.5834 4.4910 -0.0934 60 60 60
-1.5081 1.9821 1.9615 60 60 60
1.4510 0.4752 1.4805 60 60 60
0.0629 0.2196 1.4939 60 60 60
0.9858 -0.0000 1.8402 60 60 60
-3.3630 -1.3285 1.1859 60 60 60
6.0499 -2.3586 -0.0265 60 60 60
-4.5169 -11.2292 3.2312 60 60 60
0.9858 -0.0000 1.8402 60 60 60
0.9858 -0.0000 1.8402 60 60 60
4.1564 8.8352 0.1726 60 60 60
4.8885 -1.5207 -0.0127 60 60 60
3.7580 -4.4261 0.0526 60 60 60
0.3356 2.2363 1.7683 60 60 60
0.9858 -0.0000 1.8402 60 60 60
0.9858 -0.0000 1.8402 60 60 60
-6.6701 -3.1790 0.0340 60 60 60
3.9488 -9.8351 1.1936 60 60 60
-1.3745 1.9598 1.8122 60 60 60
-5.4315 -4.5618 1.0206 60 60 60
6.5532 -3.9514 -0.0653 60 60 60
0.9858 -0.0000 1.8402 60 60 60
11.1872 -8.3649 0.1056 60 60 60
8.4059 8.2135 -0.0429 60 60 60
0.9858 -0.0000 1.8402 60 60 60
0.9858 -0.0000 1.8402 60 60 60
1.4513 0.5044 1.4698 60 60 60
10.3384 -14.5773 0.1484 60 60 60
5.1632 7.8906 -0.0199 60 60 60
-1.2717 2.4187 0.5868 60 60 60
-4.1394 -34.4068 6.0484 60 60 60
-3.1027 1.7323 1.3088 60 60 60
17.0265 -35.9471 6.5126 60 60 60
0.9858 -0.0000 1.8402 60 60 60
0.1965 2.0803 1.4113 60 60 60
2.1168 3.0976 -0.0721 60 60 60
9.5496 -9.1079 3.1681 60 60 60
-3.9507 -7.5545 0.1345 60 60 60
0.3431 0.2023 1.5199 60 60 60
-3.6964 -3.0746 0.0324 60 60 60
5.9701 9.0429 0.4266 60 60 60
-17.6191 -11.9845 0.0877 60 60 60
30.3359 22.2480 1.4044 60 60 60
2.3287 -4.0583 0.3110 60 60 60
-0.0756 0.2088 1.4741 60 60 60
0.0960 0.3686 1.4866 60 60 60
0.6101 2.1406 1.1314 60 60 60
8.0248 -18.2984 0.0849 60 60 60
1.4606 8.5162 3.0439 60 60 60
-1.4238 2.4824 2.5317 60 60 60
0.3480 -0.1976 1.5213 60 60 60
3.9176 -9.7341 3.1025 60 60 60
-3.6837 1.6698 0.4070 60 60 60
-8.9175 -3.5201 0.8167 60 60 60
0.3567 8.1882 2.0846 60 60 60
0.9858 -0.0000 1.8402 60 60 60
-0.1057 -2.9938 0.0036 60 60 60
2.8752 9.7951 1.5502 60 60 60
-1.4243 2.4619 2.2010 60 60 60
0.0137 2.0820 1.6234 60 60 60
4.0805 -9.8079 1.6675 60 60 60
0.9858 -0.0000 1.8402 60 60 60
-0.1900 -3.3687 -0.0029 60 60 60
-2.3962 1.7805 0.5309 60 60 60
0.3462 2.1725 1.4503 60 60 60
2.0202 9.6686 2.0473 60 60 60
2.3361 9.6656 0.6654 60 60 60
-2.7324 -0.6823 1.0301 60 60 60
-3.3605 1.8315 2.9446 60 60 60
4.7694 -1.9026 -0.0258 60 60 60
-3.6749 -3.0997 0.0327 60 60 60
4.6682 2.7937 -0.0290 60 60 60
-10.7190 -12.0846 3.5263 60 60 60
0.3240 0.2946 1.5151 60 60 60
-0.4017 -4.3478 -0.0085 60 60 60
9.3088 -15.2097 0.1932 60 60 60
4.0531 8.8975 1.9436 60 60 60
-2.4341 1.8942 2.2788 60 60 60
0.9858 -0.0000 1.8402 60 60 60
1.7586 4.8970 -0.1224 60 60 60
0.9858 -0.0000 1.8402 60 60 60
-6.7570 -7.8286 0.1091 60 60 60
0.9858 -0.0000 1.8402 60 60 60
6.9007 -4.4076 -0.0307 60 60 60
4.5108 -4.5903 2.0677 60 60 60
4.0200 -9.9662 0.2005 60 60 60
1.1929 -4.0953 0.2118 60 60 60
2.8960 -2.9285 -0.0402 60 60 60
0.9858 -0.0000 1.8402 60 60 60
-4.4346 -0.9231 1.7042 60 60 60
0.9858 -0.0000 1.8402 60 60 60
8.8817 -9.1977 0.3110 60 60 60
3.3419 8.8245 2.6100 60 60 60
5.6057 -2.4576 -0.0389 60 60 60
-1.3916 1.9926 2.1740 60 60 60
1.2043 9.4850 0.7498 60 60 60
1.0923 -5.5580 0.2209 60 60 60
2.8504 -4.1813 0.3011 60 60 60
-2.5463 -1.0766 0.8613 60 60 60
-1.2310 2.2039 0.4042 60 60 60
-0.2517 2.0486 1.2804 60 60 60
0.9858 -0.0000 1.8402 60 60 60
4.9050 -9.1405 -0.0104 60 60 60
0.1713 2.1601 2.1552 60 60 60
4.7976 -1.8059 -0.0203 60 60 60
0.8855 2.1999 0.9323 60 60 60
-4.0478 -11.2734 1.1759 60 60 60
0.9858 -0.0000 1.8402 60 60 60
-17.0867 -4.4903 1.7946 60 60 60
0.6519 2.1399 1.1875 60 60 60
-0.6289 -4.1463 0.1721 60 60 60
2.2204 9.6457 0.6749 60 60 60
-1.9052 1.9109 1.8992 60 60 60
8.0603 4.3199 -0.0501 60 60 60
0.9858 -0.0000 1.8402 60 60 60
2.5302 -3.9750 1.9557 60 60 60
12.9453 10.2074 1.6827 60 60 60
0.9858 -0.0000 1.8402 60 60 60
-3.3071 -4.2149 0.0111 60 60 60
6.2589 9.1905 2.6117 60 60 60
