ply
format ascii 1.0
element vertex 1532
property float x
property float y
property float z
property uchar red
property uchar green
property uchar blue
end_header
0.9858 -0.0000 1.8402 60 60 60
1.4567 0.4867 1.4740 60 60 60
2.6898 3.4409 -0.0640 60 60 60
-0.5166 -2.8364 0.0159 60 60 60
1.3299 9.5155 0.9636 60 60 60
2.3725 -4.0001 0.6490 60 60 60
0.9858 -0.0000 1.8402 60 60 60
-3.1323 -3.0874 0.0355 60 60 60
1.4523 0.3170 1.5131 60 60 60
-7.7082 -11.5566 4.5972 60 60 60
0.9858 -0.0000 1.8402 60 60 60
5.5055 -3.5876 -0.0558 60 60 60
-11.8307 -4.7426 3.7016 60 60 60
0.3414 0.1712 1.5237 60 60 60
0.0772 0.4448 1.4676 60 60 60
1.1865 -4.2531 0.4858 60 60 60
-11.1494 -12.1253 4.3818 60 60 60
1.5870 -0.0736 1.4813 60 60 60
-4.5003 -1.2301 1.6976 60 60 60
-9.9678 -11.9625 2.6886 60 60 60
5.7052 8.8585 -0.0080 60 60 60
1.7719 4.5150 -0.1033 60 60 60
-3.5773 -4.4959 0.3717 60 60 60
4.3462 -5.0729 0.2158 60 60 60
0.9858 -0.0000 1.8402 60 60 60
0.4749 -3.4810 -0.0162 60 60 60
7.9932 9.5133 0.9920 60 60 60
8.6192 -5.9761 0.0967 60 60 60
14.8836 -10.5927 0.3474 60 60 60
3.2241 3.3452 -0.0669 60 60 60
-2.8425 1.7642 1.0320 60 60 60
3.4986 -9.8427 2.4048 60 60 60
1.7518 8.5722 2.8379 60 60 60
-34.5000 -21.6287 10.3003 60 60 60
-5.5809 -4.5652 1.5716 60 60 60
-10.8120 -12.0681 4.3336 60 60 60
0.9858 -0.0000 1.8402 60 60 60
17.4530 -34.1605 7.1911 60 60 60
0.6354 9.4086 1.0055 60 60 60
8.4370 9.6827 1.8083 60 60 60
-0.5723 2.6027 0.3268 60 60 60
1.3743 9.4728 0.0627 60 60 60
0.9858 -0.0000 1.8402 60 60 60
-4.1940 1.6317 0.6767 60 60 60
3.8143 -9.7464 3.5888 60 60 60
0.9858 -0.0000 1.8402 60 60 60
3.4157 -9.9097 1.2213 60 60 60
6.2290 -6.0454 0.0599 60 60 60
-2.9046 -0.7144 1.0888 60 60 60
-3.1952 -6.2193 0.0624 60 60 60
-0.7721 -7.0269 0.1856 60 60 60
-2.1710 -4.3643 1.9732 60 60 60
-3.7898 -1.6034 1.2329 60 60 60
0.9858 -0.0000 1.8402 60 60 60
3.9330 8.8790 1.9478 60 60 60
0.9858 -0.0000 1.8402 60 60 60
1.8552 -4.1004 0.3635 60 60 60
21.8259 -19.3844 0.8175 60 60 60
0.9858 -0.0000 1.8402 60 60 60
0.9858 -0.0000 1.8402 60 60 60
0.3603 2.1315 1.6683 60 60 60
0.9858 -0.0000 1.8402 60 60 60
0.8140 -3.6951 -0.0234 60 60 60
1.5060 0.3877 1.5233 60 60 60
-11.0520 -8.1396 -0.0045 60 60 60
2.8662 -9.9440 2.6675 60 60 60
0.2920 0.4042 1.5000 60 60 60
5.1364 -1.7310 -0.0238 60 60 60
0.9858 -0.0000 1.8402 60 60 60
5.1183 8.9768 0.0458 60 60 60
-1.6061 -3.5444 0.0130 60 60 60
2.0145 -4.0490 0.2500 60 60 60
0.0473 2.0975 1.5675 60 60 60
0.9858 -0.0000 1.8402 60 60 60
-7.2398 -11.4770 4.5189 60 60 60
17.3897 -34.5889 6.3475 60 60 60
2.0104 -0.1697 1.3191 60 60 60
0.4742 -10.4138 1.3458 60 60 60
4.3974 -3.6889 -0.0490 60 60 60
-2.1355 1.7785 0.5122 60 60 60
3.7902 3.0875 -0.0467 60 60 60
0.2681 -0.3252 1.5058 60 60 60
10.0281 7.9526 0.8822 60 60 60
-6.8188 -11.5042 2.8167 60 60 60
1.7004 0.2155 1.4463 60 60 60
0.3616 2.1623 1.6129 60 60 60
-2.3244 -2.5632 0.0327 60 60 60
-2.7527 -13.2596 1.3305 60 60 60
7.5667 9.3632 -0.0524 60 60 60
-1.4647 -12.0628 1.0561 60 60 60
-1.3521 1.9370 1.3851 60 60 60
-1.2479 2.0617 1.0855 60 60 60
-1.3014 2.2442 1.1985 60 60 60
3.2882 2.9383 -0.0495 60 60 60
0.0199 2.0323 0.6405 60 60 60
-8.5726 -11.7374 2.5995 60 60 60
1.5030 -4.2081 0.4755 60 60 60
5.8115 9.0449 1.1649 60 60 60
8.2157 8.5895 -0.0550 60 60 60
-4.1323 -1.1778 1.5845 60 60 60
0.9858 -0.0000 1.8402 60 60 60
4.4193 -4.8408 1.2503 60 60 60
5.0325 9.1501 3.5620 60 60 60
0.8391 2.1903 1.2244 60 60 60
0.7265 2.1198 1.1381 60 60 60
4.4191 -2.0439 -0.0264 60 60 60
12.3904 -10.2696 0.2038 60 60 60
3.3311 8.8427 3.2607 60 60 60
3.0816 3.1411 -0.0573 60 60 60
-0.2377 -3.1411 0.0054 60 60 60
-2.2091 1.8412 1.0367 60 60 60
0.9858 -0.0000 1.8402 60 60 60
0.0786 -0.3276 1.4846 60 60 60
4.6196 7.2932 -0.0470 60 60 60
2.7012 -0.4875 0.9985 60 60 60
-7.0133 -9.5133 0.4392 60 60 60
0.9858 -0.0000 1.8402 60 60 60
-0.2666 2.6846 0.6784 60 60 60
-0.5084 -4.1812 0.8466 60 60 60
22.1241 -20.5829 1.4857 60 60 60
-9.6754 -10.0701 0.5946 60 60 60
0.6576 0.5180 1.4985 60 60 60
-0.4520 2.6627 0.5800 60 60 60
2.3727 -4.1683 0.4958 60 60 60
1.5737 0.1334 1.4844 60 60 60
15.0229 -10.3157 0.3443 60 60 60
1.2266 0.5392 1.4952 60 60 60
0.9858 -0.0000 1.8402 60 60 60
0.5801 -3.0881 0.0032 60 60 60
2.4193 -4.0060 0.4247 60 60 60
1.2905 -4.0735 1.0424 60 60 60
0.6301 0.5088 1.4956 60 60 60
-4.1011 -0.8050 1.5937 60 60 60
-2.0518 1.8765 1.7369 60 60 60
0.9858 -0.0000 1.8402 60 60 60
0.9858 -0.0000 1.8402 60 60 60
10.7761 7.5144 -0.0398 60 60 60
-7.5852 -11.6072 3.2141 60 60 60
-1.4492 3.2864 2.0579 60 60 60
0.9858 -0.0000 1.8402 60 60 60
4.3420 -5.0685 1.9532 60 60 60
-1.4401 1.9780 2.0312 60 60 60
5.3928 3.8335 -0.0459 60 60 60
1.5623 0.3025 1.4802 60 60 60
-0.3466 8.0843 2.1164 60 60 60
-2.1323 -3.5386 0.0239 60 60 60
-3.7378 -4.5737 1.5856 60 60 60
1.7898 9.5942 1.1577 60 60 60
0.0684 0.1746 1.4996 60 60 60
2.5173 9.7466 1.5692 60 60 60
-9.1584 -3.7373 0.7851 60 60 60
0.9858 -0.0000 1.8402 60 60 60
-1.4501 1.9105 1.0789 60 60 60
1.8383 -4.1950 -0.0114 60 60 60
-1.5566 1.9430 1.8144 60 60 60
-3.3250 1.8003 2.3734 60 60 60
0.4893 2.1069 0.9101 60 60 60
-7.1352 -9.5433 0.4305 60 60 60
0.4652 2.1145 1.4085 60 60 60
0.9858 -0.0000 1.8402 60 60 60
-2.5280 -0.4598 0.9088 60 60 60
6.6316 -5.6574 0.0435 60 60 60
0.3545 2.1199 1.5128 60 60 60
3.7963 -3.3879 -0.0435 60 60 60
0.4439 2.1346 1.3509 60 60 60
-0.1737 2.0507 1.2864 60 60 60
1.9879 -3.4207 -0.0231 60 60 60
1.5012 -4.0815 0.9270 60 60 60
-3.9492 1.7253 2.1955 60 60 60
-1.7777 -2.7541 0.0275 60 60 60
1.4539 9.5296 1.1792 60 60 60
0.1445 -0.1692 1.5032 60 60 60
0.9858 -0.0000 1.8402 60 60 60
-0.1569 -10.4525 2.5979 60 60 60
-5.0753 -4.7542 1.5682 60 60 60
-3.6899 -2.3542 0.0329 60 60 60
-2.3253 -3.3896 0.0255 60 60 60
-1.4476 3.0739 0.9423 60 60 60
-0.0811 -0.1644 1.4740 60 60 60
0.2830 -0.0559 1.5258 60 60 60
-5.9744 -35.5450 7.1560 60 60 60
-7.5657 -3.8403 0.9120 60 60 60
1.0914 -10.2814 1.8044 60 60 60
1.5755 -0.0407 1.5082 60 60 60
2.0335 -7.2402 0.5648 60 60 60
-1.7281 1.9355 1.9716 60 60 60
-0.9416 -4.8780 0.0131 60 60 60
8.5732 9.6527 1.5180 60 60 60
1.5134 0.4632 1.5390 60 60 60
-0.7648 -4.2641 -0.0077 60 60 60
-1.4922 1.8830 0.7610 60 60 60
-10.4042 -10.3804 0.1766 60 60 60
-2.1163 -4.3591 1.2203 60 60 60
3.3136 -5.1712 0.6426 60 60 60
-1.4520 1.8974 0.7680 60 60 60
0.9858 -0.0000 1.8402 60 60 60
0.9858 -0.0000 1.8402 60 60 60
1.3460 0.4368 1.5012 60 60 60
-1.3063 2.0611 2.1689 60 60 60
-0.7858 -4.1601 0.6172 60 60 60
-3.9536 1.6494 0.7234 60 60 60
-9.2447 -11.9251 1.1797 60 60 60
-1.4087 2.2653 1.1014 60 60 60
-24.5156 -8.0852 -0.1183 60 60 60
0.5137 0.4216 1.5142 60 60 60
8.5661 7.7343 -0.0183 60 60 60
2.7127 -0.4142 1.0012 60 60 60
3.1228 -9.9533 1.2358 60 60 60
0.4450 -0.3022 1.5230 60 60 60
-2.5054 -3.2250 0.0297 60 60 60
5.1698 -5.0769 -1.9330 60 60 60
0.9858 -0.0000 1.8402 60 60 60
-4.4814 -34.3370 7.7130 60 60 60
2.0480 -4.0652 0.3502 60 60 60
-0.3699 -4.0714 -0.0124 60 60 60
0.4580 -0.2033 1.5362 60 60 60
0.9858 -0.0000 1.8402 60 60 60
-5.8755 -1.4553 1.3369 60 60 60
0.9858 -0.0000 1.8402 60 60 60
3.6843 -9.7989 2.8737 60 60 60
-2.4841 1.8535 1.8228 60 60 60
-1.4373 3.0559 2.7017 60 60 60
-1.2546 1.8800 0.5867 60 60 60
-6.3728 1.4596 1.8352 60 60 60
0.2688 -0.3398 1.5032 60 60 60
-1.7026 7.9904 3.1777 60 60 60
0.9858 -0.0000 1.8402 60 60 60
1.5203 -0.1214 1.4983 60 60 60
-2.9198 1.7038 0.4962 60 60 60
-9.5473 -11.8252 4.1530 60 60 60
-1.3710 2.3473 1.6464 60 60 60
-2.8333 1.7828 0.9290 60 60 60
0.9858 -0.0000 1.8402 60 60 60
-0.0606 0.1628 1.4820 60 60 60
2.7086 -0.4674 0.9974 60 60 60
-0.0650 0.1330 1.4821 60 60 60
11.9734 10.1225 0.6632 60 60 60
4.0880 8.9181 2.3838 60 60 60
0.2216 0.1493 1.5145 60 60 60
1.9677 -3.9098 -0.0257 60 60 60
-2.5618 1.8887 2.3872 60 60 60
0.9858 -0.0000 1.8402 60 60 60
0.2668 -0.0285 1.5393 60 60 60
2.8587 3.0428 -0.0538 60 60 60
-3.4914 1.7198 1.3812 60 60 60
-0.2108 -3.3658 -0.0038 60 60 60
22.7160 -18.1716 2.1010 60 60 60
-7.9121 -3.6901 0.6660 60 60 60
-4.3357 -4.6228 0.4126 60 60 60
1.4427 -0.3969 1.5258 60 60 60
0.9858 -0.0000 1.8402 60 60 60
4.3444 7.6052 -0.0678 60 60 60
19.7577 -29.4056 3.3215 60 60 60
0.9858 -0.0000 1.8402 60 60 60
-1.2712 1.9787 2.0910 60 60 60
-1.6465 1.8764 1.0493 60 60 60
-1.2866 2.0635 2.0951 60 60 60
-4.5912 -18.0809 3.8131 60 60 60
-0.1243 2.0417 0.9975 60 60 60
-2.0407 -7.1397 0.1258 60 60 60
-5.4537 1.4779 0.5906 60 60 60
0.3781 -0.2876 1.5169 60 60 60
4.9694 1.1409 0.0097 60 60 60
4.0859 4.8633 -0.1035 60 60 60
0.2293 2.1554 0.7434 60 60 60
2.0066 5.2320 -0.1382 60 60 60
2.9127 3.9194 -0.0777 60 60 60
-0.6671 4.1402 1.8255 60 60 60
9.1444 -5.3056 0.0685 60 60 60
0.1243 2.0750 1.0734 60 60 60
6.1792 -5.2080 0.0066 60 60 60
-6.9460 1.5756 -0.0816 60 60 60
4.6384 2.1519 -0.0061 60 60 60
-1.2139 1.9610 1.1101 60 60 60
11.8229 -6.9501 0.1098 60 60 60
0.9858 -0.0000 1.8402 60 60 60
16.2244 -38.8163 7.8562 60 60 60
3.2089 -9.8929 2.4168 60 60 60
0.9858 -0.0000 1.8402 60 60 60
5.9888 -0.0595 0.0209 60 60 60
2.8430 3.0570 -0.0549 60 60 60
3.4261 -9.8581 1.9336 60 60 60
-1.3968 1.8899 0.6222 60 60 60
1.6654 -0.0114 1.5378 60 60 60
-6.2112 1.3918 0.4556 60 60 60
1.5494 3.7257 -0.0729 60 60 60
-4.5798 1.6041 0.1708 60 60 60
-4.0486 -8.7678 0.3892 60 60 60
0.8734 2.1587 0.7041 60 60 60
0.5527 0.4747 1.5066 60 60 60
-0.1246 -4.1597 1.0684 60 60 60
0.7341 8.2038 2.8376 60 60 60
1.5738 8.5528 3.2486 60 60 60
0.5274 -0.3920 1.5089 60 60 60
6.7994 -3.4459 -0.0595 60 60 60
0.0609 2.0991 1.5674 60 60 60
4.5760 -4.8196 2.7872 60 60 60
0.1632 2.1001 1.6214 60 60 60
-4.0136 -11.2422 1.7519 60 60 60
-0.9691 2.5217 0.6202 60 60 60
0.9858 -0.0000 1.8402 60 60 60
-5.7135 -4.5519 1.9483 60 60 60
0.6983 -10.3300 2.5458 60 60 60
1.4073 -4.2259 0.4780 60 60 60
0.4758 2.1237 0.9619 60 60 60
1.3576 -0.4361 1.4931 60 60 60
-3.1027 1.7323 1.3088 60 60 60
2.9881 -4.2588 1.8441 60 60 60
-1.2608 -3.9087 0.0627 60 60 60
-1.7160 1.9164 1.7395 60 60 60
0.1232 1.8552 1.9332 60 60 60
5.9566 -2.6434 -0.0352 60 60 60
2.2875 4.6592 -0.1047 60 60 60
5.1820 6.5928 -0.0056 60 60 60
1.4740 -10.2786 0.8252 60 60 60
-1.3566 1.9717 1.8833 60 60 60
5.3009 -0.7950 0.0104 60 60 60
-7.6269 -3.8052 0.6878 60 60 60
0.8256 -4.4823 0.1989 60 60 60
0.9858 -0.0000 1.8402 60 60 60
0.9858 -0.0000 1.8402 60 60 60
1.5027 -0.3293 1.5189 60 60 60
0.5493 2.1261 1.1354 60 60 60
6.3705 -2.9437 -0.0455 60 60 60
0.9858 -0.0000 1.8402 60 60 60
0.4288 0.2858 1.5226 60 60 60
0.4035 0.1903 1.5313 60 60 60
0.9858 -0.0000 1.8402 60 60 60
-6.8480 -7.8332 0.1007 60 60 60
2.2414 -4.0413 0.2182 60 60 60
-6.2704 -11.5594 3.0984 60 60 60
1.4387 -10.2299 1.5505 60 60 60
0.1524 0.1729 1.5071 60 60 60
0.9858 -0.0000 1.8402 60 60 60
-1.4867 -8.1006 0.1320 60 60 60
1.4351 -4.0974 0.3006 60 60 60
-0.0685 -3.1827 0.0053 60 60 60
-1.5288 4.1173 2.8837 60 60 60
0.9858 -0.0000 1.8402 60 60 60
-1.1943 2.0425 2.3699 60 60 60
5.5749 -5.8542 1.6102 60 60 60
-2.2263 -2.6677 0.0321 60 60 60
6.6788 3.6769 -0.0353 60 60 60
-0.1183 -10.4018 3.5810 60 60 60
-1.7704 1.9010 1.5835 60 60 60
-2.7884 1.8743 2.5167 60 60 60
0.9858 -0.0000 1.8402 60 60 60
1.4518 -0.4611 1.5012 60 60 60
2.4911 6.0965 -0.1781 60 60 60
3.7380 -8.6891 -0.0382 60 60 60
5.9701 9.0429 0.4266 60 60 60
0.9858 -0.0000 1.8402 60 60 60
6.5935 -11.6903 0.0256 60 60 60
5.5021 -1.4581 -0.0050 60 60 60
-8.9523 -11.7070 4.4348 60 60 60
-2.6308 1.8587 2.0131 60 60 60
0.9858 -0.0000 1.8402 60 60 60
0.9858 -0.0000 1.8402 60 60 60
0.9858 -0.0000 1.8402 60 60 60
0.9858 -0.0000 1.8402 60 60 60
3.0454 4.6239 -0.0970 60 60 60
0.9858 -0.0000 1.8402 60 60 60
1.5759 -0.1120 1.4845 60 60 60
-0.4051 -10.6877 1.6220 60 60 60
0.9858 -0.0000 1.8402 60 60 60
3.1508 9.8265 1.0647 60 60 60
2.7407 -0.2804 0.9996 60 60 60
19.1279 -27.9549 5.5890 60 60 60
2.7117 8.0329 -0.1678 60 60 60
-2.3682 1.8040 0.9197 60 60 60
2.8980 9.7406 0.1466 60 60 60
3.2900 -9.8207 3.6020 60 60 60
-1.9730 -10.9141 0.8891 60 60 60
-1.7881 1.8994 1.8174 60 60 60
3.4533 -4.2706 0.0295 60 60 60
0.7327 2.4073 1.4615 60 60 60
-2.7333 1.8201 1.7285 60 60 60
0.9858 -0.0000 1.8402 60 60 60
-10.6934 -4.9629 4.7801 60 60 60
0.9858 -0.0000 1.8402 60 60 60
-14.7372 -12.5852 5.3789 60 60 60
1.4216 -0.3449 1.4993 60 60 60
0.9858 -0.0000 1.8402 60 60 60
0.4609 0.3495 1.5184 60 60 60
4.7761 8.9948 1.4648 60 60 60
4.1513 6.8700 -0.0874 60 60 60
7.1237 9.3793 1.5843 60 60 60
0.9858 -0.0000 1.8402 60 60 60
2.4527 -3.9243 0.7620 60 60 60
-4.6219 1.6213 1.5611 60 60 60
-1.3243 1.8879 1.3225 60 60 60
-0.9036 -7.9816 0.5563 60 60 60
1.5857 -0.2803 1.4711 60 60 60
0.9858 -0.0000 1.8402 60 60 60
0.6405 2.1107 1.1414 60 60 60
-1.1372 2.7267 0.7891 60 60 60
4.5819 3.6187 -0.0600 60 60 60
1.5249 -10.1527 2.4962 60 60 60
-1.4161 2.8133 1.6151 60 60 60
3.8485 6.5296 -0.1493 60 60 60
4.8791 3.8627 -0.0591 60 60 60
1.5905 3.7074 -0.0695 60 60 60
-5.7817 1.4782 0.8611 60 60 60
7.6530 -8.7677 -0.0518 60 60 60
-0.0835 -0.1962 1.4711 60 60 60
0.9858 -0.0000 1.8402 60 60 60
0.9858 -0.0000 1.8402 60 60 60
6.4188 -2.8064 -0.0417 60 60 60
0.9858 -0.0000 1.8402 60 60 60
3.3701 -2.7517 -0.0318 60 60 60
8.0184 -4.1655 -0.0529 60 60 60
0.9858 -0.0000 1.8402 60 60 60
7.5320 9.4658 2.1025 60 60 60
-3.8958 1.6645 0.8593 60 60 60
0.9858 -0.0000 1.8402 60 60 60
0.9858 -0.0000 1.8402 60 60 60
-2.8227 -0.3211 1.0247 60 60 60
3.8950 8.8420 1.5157 60 60 60
-1.0675 2.2158 0.5319 60 60 60
0.1248 -3.6561 -0.0121 60 60 60
3.5050 8.8780 3.2657 60 60 60
0.5484 -0.4193 1.5058 60 60 60
21.2148 -23.9877 2.2954 60 60 60
1.3846 -3.6031 -0.0190 60 60 60
0.0466 8.1118 1.5267 60 60 60
-8.8343 -5.1146 1.2482 60 60 60
0.9858 -0.0000 1.8402 60 60 60
4.1040 -4.9740 1.5444 60 60 60
-1.9251 1.9480 2.4767 60 60 60
-5.9466 -4.4556 0.0074 60 60 60
0.0990 0.3852 1.4850 60 60 60
1.6431 4.2544 -0.1001 60 60 60
-3.2897 -11.0876 1.1737 60 60 60
1.0348 4.7375 -0.1272 60 60 60
-1.3622 1.8806 0.5531 60 60 60
0.9858 -0.0000 1.8402 60 60 60
6.5083 9.1272 0.3616 60 60 60
-2.9034 1.8273 1.9258 60 60 60
0.2012 0.0492 1.5330 60 60 60
-2.7299 1.7472 0.5430 60 60 60
0.9858 -0.0000 1.8402 60 60 60
0.4745 -10.3516 3.0460 60 60 60
4.5552 -4.8456 1.3790 60 60 60
1.9073 6.3749 -0.1979 60 60 60
0.2823 3.6541 -0.0856 60 60 60
0.9858 -0.0000 1.8402 60 60 60
0.6870 8.1979 2.8393 60 60 60
3.2747 8.8346 3.2597 60 60 60
5.8979 -1.3033 -0.0031 60 60 60
2.2426 4.0044 -0.0863 60 60 60
-1.3196 8.0343 2.9513 60 60 60
-0.0889 2.0786 1.6233 60 60 60
-6.1925 -8.0535 0.1234 60 60 60
1.6223 5.9088 -0.1834 60 60 60
-0.8711 8.1421 2.5356 60 60 60
0.9858 -0.0000 1.8402 60 60 60
5.1589 2.4816 -0.0106 60 60 60
-0.9222 8.1484 2.5392 60 60 60
-0.0873 0.2687 1.4654 60 60 60
0.9858 -0.0000 1.8402 60 60 60
-1.3965 1.9653 2.0282 60 60 60
7.9792 9.4515 0.1661 60 60 60
6.4475 -4.9275 -0.0058 60 60 60
20.7635 -21.4874 6.3372 60 60 60
0.5987 2.0939 0.7998 60 60 60
3.2372 -10.1079 -0.0014 60 60 60
2.7120 -0.3926 1.0037 60 60 60
2.8113 -9.9275 2.9061 60 60 60
7.0126 9.3109 0.5508 60 60 60
-4.2328 1.6172 0.9338 60 60 60
1.2634 0.5202 1.4935 60 60 60
-2.7006 8.7409 2.4802 60 60 60
7.9618 9.6246 3.2133 60 60 60
-8.2909 -18.8604 3.1951 60 60 60
-1.1761 -2.9411 0.0130 60 60 60
1.5800 -4.0915 0.2884 60 60 60
1.8221 -10.0897 2.7162 60 60 60
-1.9115 1.8587 1.2530 60 60 60
0.9858 -0.0000 1.8402 60 60 60
0.3102 2.5424 1.7563 60 60 60
-5.2259 -2.5757 0.0445 60 60 60
0.2344 -3.2416 0.0009 60 60 60
4.5158 8.9523 1.4799 60 60 60
5.1217 -9.0577 -0.0225 60 60 60
-0.0310 -3.1938 0.0035 60 60 60
6.0827 9.1111 1.6316 60 60 60
0.4334 8.1593 0.9348 60 60 60
-2.0802 -10.8933 3.5438 60 60 60
-2.6526 -1.4357 0.7972 60 60 60
0.9645 -3.6759 -0.0205 60 60 60
-1.3342 2.3548 1.4915 60 60 60
1.4795 -4.1029 0.1839 60 60 60
-3.4083 -1.3698 1.1775 60 60 60
0.2540 -0.0206 1.5540 60 60 60
20.2177 -23.8033 5.1673 60 60 60
1.9692 -3.4303 -0.0240 60 60 60
-1.3251 2.6108 0.7878 60 60 60
-1.4558 3.2545 2.5380 60 60 60
2.0044 -3.2079 -0.0250 60 60 60
5.7581 7.2859 -0.0092 60 60 60
8.0818 7.1789 2.2388 60 60 60
4.2118 3.5326 -0.0611 60 60 60
-1.3146 -4.2132 0.6821 60 60 60
1.1987 -10.1633 3.2293 60 60 60
-2.8215 -3.4414 0.0237 60 60 60
1.4247 -0.3146 1.5080 60 60 60
-8.9546 -11.7929 2.9861 60 60 60
0.5652 2.1414 1.4553 60 60 60
2.8697 5.2476 -0.1258 60 60 60
6.6116 9.1473 0.6020 60 60 60
0.2463 2.1856 0.7310 60 60 60
1.8312 -4.1039 0.3652 60 60 60
-2.0172 1.8539 1.2396 60 60 60
0.3086 0.2478 1.5174 60 60 60
0.1974 2.0694 1.3598 60 60 60
-1.4475 3.2993 2.2504 60 60 60
0.4649 -0.3311 1.5230 60 60 60
-2.5474 1.7934 0.7864 60 60 60
4.5277 -4.7234 0.2509 60 60 60
-1.5211 1.8794 0.6716 60 60 60
0.4572 0.2668 1.5223 60 60 60
-4.1412 -0.4211 1.5973 60 60 60
1.4766 -3.3859 -0.0237 60 60 60
-2.5836 -0.2607 0.9013 60 60 60
3.5123 8.7743 1.1099 60 60 60
1.1149 -4.3218 0.4686 60 60 60
0.9159 2.1575 0.5712 60 60 60
-2.4446 -1.1308 0.6986 60 60 60
5.8925 1.0860 0.0228 60 60 60
0.9858 -0.0000 1.8402 60 60 60
0.2984 2.1307 1.3493 60 60 60
0.5110 -0.0244 1.6149 60 60 60
-1.2691 2.1024 0.5974 60 60 60
1.3718 -0.5290 1.4664 60 60 60
0.9858 -0.0000 1.8402 60 60 60
0.3983 2.1198 1.4071 60 60 60
1.2748 8.4655 2.4452 60 60 60
10.0058 7.9924 1.4467 60 60 60
-1.1804 8.3580 3.3890 60 60 60
17.5841 -12.3292 1.0350 60 60 60
4.6193 2.1992 -0.0080 60 60 60
-9.7157 -5.2009 2.3198 60 60 60
-6.9326 1.2909 -0.0649 60 60 60
0.9858 -0.0000 1.8402 60 60 60
5.3250 9.0500 0.7275 60 60 60
22.1948 -16.2732 4.5534 60 60 60
1.5306 -0.0243 1.5169 60 60 60
1.4525 0.4700 1.5013 60 60 60
5.4991 9.1269 1.8953 60 60 60
3.4804 8.8239 2.1791 60 60 60
5.7450 9.1469 1.4076 60 60 60
0.9858 -0.0000 1.8402 60 60 60
1.1053 -0.4123 1.5761 60 60 60
-2.1061 1.8756 1.4826 60 60 60
-0.9970 2.3232 0.5960 60 60 60
0.9858 -0.0000 1.8402 60 60 60
8.1887 9.5645 2.0940 60 60 60
1.4884 0.2352 1.4979 60 60 60
-3.3057 1.7087 0.7332 60 60 60
-1.7410 1.8599 0.7004 60 60 60
17.7346 -15.0570 0.4956 60 60 60
2.4469 -3.9386 0.4403 60 60 60
8.2761 -4.9913 0.0239 60 60 60
0.9858 -0.0000 1.8402 60 60 60
3.0998 6.4016 -0.1805 60 60 60
0.9858 -0.0000 1.8402 60 60 60
-4.3835 -2.9433 0.0340 60 60 60
18.8835 -28.5873 7.2577 60 60 60
0.9858 -0.0000 1.8402 60 60 60
-1.0026 2.2090 0.3832 60 60 60
7.8703 4.8361 -0.0628 60 60 60
0.4710 2.1394 1.5614 60 60 60
13.1554 -8.5183 0.2079 60 60 60
-1.1531 8.0046 1.3836 60 60 60
5.3846 -1.9555 -0.0235 60 60 60
-2.6466 1.8868 2.5938 60 60 60
2.8349 -4.1219 0.6648 60 60 60
3.3607 6.2088 -0.1672 60 60 60
4.4344 3.8120 -0.0647 60 60 60
6.5859 3.9016 -0.0414 60 60 60
-3.2067 1.8543 2.9124 60 60 60
0.9858 -0.0000 1.8402 60 60 60
-2.2981 1.8882 2.0860 60 60 60
2.4766 -10.0740 1.0275 60 60 60
5.2165 9.1234 2.6097 60 60 60
-3.1427 1.7399 1.1975 60 60 60
5.6423 9.1930 2.6132 60 60 60
1.0067 3.8632 -0.0887 60 60 60
4.8885 -1.5207 -0.0127 60 60 60
0.4343 -0.4210 1.5016 60 60 60
0.1691 8.1654 2.0931 60 60 60
-0.0557 -10.4007 3.5769 60 60 60
-3.2578 1.7505 1.6144 60 60 60
-8.4310 -44.2706 2.1432 60 60 60
-2.7301 8.5616 2.6922 60 60 60
-0.3825 -4.3875 0.1010 60 60 60
22.3443 -19.3424 4.1550 60 60 60
4.8120 -3.8067 -0.0540 60 60 60
6.8662 6.6344 -0.0939 60 60 60
15.3739 -9.3345 0.3435 60 60 60
-6.9684 -36.1813 7.3171 60 60 60
-0.4427 2.2471 1.2199 60 60 60
-6.7290 -11.5804 1.1897 60 60 60
4.5741 -2.3115 -0.0297 60 60 60
-3.3380 -2.8358 0.0378 60 60 60
2.9437 -4.3129 0.3680 60 60 60
-2.6830 -0.2254 0.9668 60 60 60
9.9330 10.1867 3.6772 60 60 60
0.7128 2.1297 1.1349 60 60 60
5.1957 -10.4612 0.0226 60 60 60
-5.0021 -4.6808 0.3140 60 60 60
1.7022 -10.1222 2.4867 60 60 60
-1.4393 3.0256 1.7806 60 60 60
5.2892 -3.0617 -0.0398 60 60 60
0.9858 -0.0000 1.8402 60 60 60
7.1850 4.3644 -0.0604 60 60 60
-1.5728 3.9382 1.3119 60 60 60
-8.5496 -11.9143 0.8235 60 60 60
0.9858 -0.0000 1.8402 60 60 60
-3.3626 -4.4848 0.4029 60 60 60
6.2250 6.2857 -0.1355 60 60 60
3.9880 4.9597 -0.1076 60 60 60
2.0740 -7.2180 0.5655 60 60 60
0.9858 -0.0000 1.8402 60 60 60
-6.9514 1.4334 -0.0757 60 60 60
1.1192 -4.1895 0.0651 60 60 60
0.2794 2.0790 1.1968 60 60 60
4.4983 -1.8465 -0.0186 60 60 60
0.1899 2.1116 0.7595 60 60 60
1.5706 3.9748 -0.0826 60 60 60
0.3477 2.1118 1.4081 60 60 60
0.9858 -0.0000 1.8402 60 60 60
4.8722 -1.6212 -0.0210 60 60 60
1.2576 -0.4923 1.4871 60 60 60
-1.4289 2.8694 0.8932 60 60 60
1.1385 -10.1640 3.2321 60 60 60
-1.4532 3.1802 2.6254 60 60 60
-2.4786 -12.8155 1.0333 60 60 60
-1.8723 -4.1661 0.0024 60 60 60
1.7119 -3.5219 -0.0232 60 60 60
0.0482 1.8309 2.0333 60 60 60
2.0411 -4.0552 0.2439 60 60 60
8.5151 9.9939 3.5718 60 60 60
-16.4268 -12.8208 6.1871 60 60 60
-1.2869 2.3536 0.6027 60 60 60
1.3200 -0.4647 1.4958 60 60 60
-11.6492 -4.0865 1.1762 60 60 60
-29.8551 3.5274 -0.3350 60 60 60
0.9858 -0.0000 1.8402 60 60 60
0.7248 2.3529 1.4704 60 60 60
0.9858 -0.0000 1.8402 60 60 60
1.3473 0.3951 1.5009 60 60 60
-1.3485 2.0143 2.3906 60 60 60
3.4418 8.9315 1.9686 60 60 60
-1.5304 3.5833 2.2746 60 60 60
4.4361 -1.9996 -0.0239 60 60 60
1.8481 9.6472 2.0543 60 60 60
5.5593 -1.0407 0.0122 60 60 60
-17.4312 -17.0299 0.8885 60 60 60
-0.6025 2.3770 0.5032 60 60 60
1.7119 -7.3053 0.9257 60 60 60
-1.5279 1.8911 1.2978 60 60 60
0.9858 -0.0000 1.8402 60 60 60
4.0387 4.9141 -0.1065 60 60 60
0.0598 2.0766 1.6241 60 60 60
-2.6033 -4.1815 0.0052 60 60 60
9.8795 -5.0017 -0.0317 60 60 60
5.0313 0.8538 0.0089 60 60 60
-4.7657 1.6441 2.2506 60 60 60
-1.2644 -4.0827 0.1231 60 60 60
1.1202 -10.3964 0.8314 60 60 60
2.3287 -4.0583 0.3110 60 60 60
4.0684 5.5785 -0.1262 60 60 60
0.3251 2.0720 1.0322 60 60 60
-0.1764 2.0433 1.1713 60 60 60
0.9858 -0.0000 1.8402 60 60 60
0.7503 2.7150 0.4135 60 60 60
-5.9280 0.0272 1.1927 60 60 60
-11.9112 -12.2773 3.6500 60 60 60
1.6373 -0.1117 1.4692 60 60 60
0.9858 -0.0000 1.8402 60 60 60
0.9858 -0.0000 1.8402 60 60 60
-2.4752 1.8459 1.7318 60 60 60
-1.5900 -3.5648 0.0089 60 60 60
0.9858 -0.0000 1.8402 60 60 60
5.9202 -5.7360 1.2407 60 60 60
0.7396 -4.5506 0.0559 60 60 60
3.5841 4.7340 -0.1053 60 60 60
5.7049 9.0835 0.2048 60 60 60
0.9858 -0.0000 1.8402 60 60 60
5.5485 -1.0955 0.0119 60 60 60
5.2010 -2.4385 -0.0344 60 60 60
1.2035 -4.0743 1.4366 60 60 60
0.7701 -4.0953 1.9332 60 60 60
3.1812 8.8450 3.4815 60 60 60
3.3356 5.4886 -0.1265 60 60 60
0.6509 2.2023 1.4964 60 60 60
-11.0836 -8.0577 0.0005 60 60 60
-16.4932 -12.9826 4.1390 60 60 60
0.8407 2.2120 1.2734 60 60 60
9.2899 9.6786 0.5901 60 60 60
6.2758 -3.1812 -0.0509 60 60 60
1.0405 -10.1807 3.7262 60 60 60
0.3902 0.2976 1.5218 60 60 60
5.6103 -0.6022 0.0201 60 60 60
-2.1154 1.7905 0.5159 60 60 60
-1.0978 2.7728 0.7829 60 60 60
-2.7139 1.7831 1.0515 60 60 60
0.9858 -0.0000 1.8402 60 60 60
4.1223 -3.0212 -0.0415 60 60 60
0.9858 -0.0000 1.8402 60 60 60
0.4190 0.3873 1.5095 60 60 60
-4.8259 -1.2671 1.1332 60 60 60
2.3601 -3.7517 -0.0311 60 60 60
0.5397 0.4020 1.5128 60 60 60
-3.4261 -18.3873 3.7566 60 60 60
0.9350 -7.5136 0.5836 60 60 60
2.9556 -4.2735 0.3764 60 60 60
-4.2368 1.9961 -0.0627 60 60 60
0.0221 1.8720 2.1877 60 60 60
1.0763 -10.2748 1.3254 60 60 60
2.4396 -3.9230 1.3696 60 60 60
-2.9623 1.7320 0.8046 60 60 60
1.4896 -7.3659 0.5792 60 60 60
3.3557 -10.0899 -0.0084 60 60 60
-1.9182 -4.2609 0.4911 60 60 60
-1.5182 1.9929 2.4921 60 60 60
-1.9878 1.8845 1.7375 60 60 60
2.0170 8.6141 3.0385 60 60 60
3.3435 9.6511 1.9909 60 60 60
-5.2761 -4.6832 1.5696 60 60 60
5.9814 -0.1479 0.0228 60 60 60
6.0308 6.9730 -0.0038 60 60 60
-1.4162 1.9434 1.3781 60 60 60
1.9528 -0.3060 1.3328 60 60 60
5.9579 -6.0938 0.2908 60 60 60
1.6497 -0.0699 1.4855 60 60 60
-5.2869 -19.8794 3.5313 60 60 60
0.4074 0.1534 1.5389 60 60 60
-0.4732 -7.7806 0.7715 60 60 60
0.4694 2.1594 1.6114 60 60 60
-2.3961 -1.0503 0.6310 60 60 60
-0.1527 2.0437 1.0540 60 60 60
1.5092 0.0839 1.4925 60 60 60
-5.4788 0.9362 -0.0357 60 60 60
-1.5566 3.8049 1.2197 60 60 60
-2.3563 1.7876 0.6389 60 60 60
0.4195 -4.1415 1.6589 60 60 60
1.4810 -0.5014 1.4965 60 60 60
5.2482 -3.9943 -0.0644 60 60 60
8.4955 -4.6998 0.0104 60 60 60
5.1603 1.5188 0.0060 60 60 60
3.5805 -4.6430 1.9543 60 60 60
0.4098 2.1452 1.6661 60 60 60
1.4962 0.2029 1.5004 60 60 60
0.5725 -0.4491 1.5015 60 60 60
0.1346 4.2836 1.6886 60 60 60
9.0327 -5.4364 0.0764 60 60 60
0.4220 2.1252 1.5639 60 60 60
-2.5900 -10.8804 0.6360 60 60 60
1.5887 -0.2603 1.4737 60 60 60
0.7165 -4.7167 0.3624 60 60 60
-5.4528 1.5031 -0.0621 60 60 60
0.9858 -0.0000 1.8402 60 60 60
-3.3811 -1.4717 1.1749 60 60 60
7.1193 9.4185 2.3703 60 60 60
0.9858 -0.0000 1.8402 60 60 60
-0.3405 2.0156 0.7786 60 60 60
-1.2961 2.3679 0.6835 60 60 60
11.4764 10.0321 0.3659 60 60 60
22.8191 -13.7465 5.0072 60 60 60
1.3607 -0.4195 1.4989 60 60 60
3.4933 8.7962 0.6801 60 60 60
0.9341 3.4178 -0.0665 60 60 60
0.7175 -4.4144 -0.0104 60 60 60
-0.8898 4.2695 2.3762 60 60 60
0.9858 -0.0000 1.8402 60 60 60
0.5783 -0.4919 1.5035 60 60 60
1.4701 0.4808 1.5106 60 60 60
5.6948 4.3865 -0.0662 60 60 60
3.3387 3.9775 -0.0789 60 60 60
1.2682 0.4699 1.4986 60 60 60
1.8869 -0.4272 1.3436 60 60 60
-8.9112 -11.8377 1.9042 60 60 60
1.4385 -0.4282 1.4796 60 60 60
-3.1205 0.1025 1.0657 60 60 60
0.1395 -0.1061 1.5061 60 60 60
-1.4016 -4.2562 1.8245 60 60 60
0.9858 -0.0000 1.8402 60 60 60
-0.8895 -4.9269 0.1368 60 60 60
-1.2761 2.0780 2.0948 60 60 60
-5.1435 1.5915 1.9814 60 60 60
32.1661 22.6494 4.0548 60 60 60
17.1842 -35.1521 7.3294 60 60 60
1.5122 0.4731 1.5369 60 60 60
0.5671 -0.4397 1.5039 60 60 60
21.7274 -21.8661 2.9206 60 60 60
-4.3194 -26.7563 3.9157 60 60 60
-84.1625 13.3209 1.8010 60 60 60
0.5856 -10.4439 1.0957 60 60 60
4.8543 -4.6918 0.0392 60 60 60
-1.3865 2.4756 2.1178 60 60 60
3.5809 -4.2584 0.0044 60 60 60
1.4602 0.3468 1.5183 60 60 60
-2.3943 1.8424 1.4632 60 60 60
-1.4449 2.0087 2.5581 60 60 60
-0.3073 -4.1596 1.0676 60 60 60
2.5710 9.6774 -0.0554 60 60 60
-2.0419 1.8182 0.5327 60 60 60
1.6270 -0.1377 1.4723 60 60 60
-0.9279 3.4943 1.8466 60 60 60
-6.6282 -11.4917 2.4787 60 60 60
-5.6187 -8.3300 0.1250 60 60 60
0.9858 -0.0000 1.8402 60 60 60
0.0262 2.0940 1.2336 60 60 60
5.2472 9.0686 1.4372 60 60 60
5.2781 2.1897 -0.0055 60 60 60
4.0629 7.9454 -0.0971 60 60 60
0.9858 -0.0000 1.8402 60 60 60
1.3377 -4.1238 0.1890 60 60 60
0.1641 -0.2704 1.4987 60 60 60
0.3991 2.6715 1.6201 60 60 60
-4.4645 -1.0901 1.7009 60 60 60
-6.2170 -4.2877 0.7896 60 60 60
1.5556 -0.0223 1.5200 60 60 60
2.7022 -10.0432 0.7780 60 60 60
-1.4032 2.6073 2.0408 60 60 60
4.6784 9.0788 3.3049 60 60 60
0.9858 -0.0000 1.8402 60 60 60
-13.9250 -12.6183 3.4062 60 60 60
0.1140 2.0591 1.0193 60 60 60
3.7736 5.8217 -0.1339 60 60 60
-5.3387 -17.5838 3.8276 60 60 60
-1.6006 7.9956 3.1691 60 60 60
7.5052 6.8215 -0.0014 60 60 60
5.4294 1.7022 0.0053 60 60 60
22.0258 -20.6951 2.8665 60 60 60
0.3184 2.1266 1.6173 60 60 60
1.2675 -0.4824 1.4887 60 60 60
3.5721 8.8582 2.6082 60 60 60
-1.5414 3.6994 1.3401 60 60 60
3.4725 -3.3071 -0.0381 60 60 60
0.1493 2.0680 1.4658 60 60 60
4.0277 -5.8221 0.7543 60 60 60
0.4570 -0.4484 1.5005 60 60 60
-2.6478 -14.1762 1.6257 60 60 60
0.3790 2.0703 0.6050 60 60 60
1.8476 9.5990 1.1544 60 60 60
0.9858 -0.0000 1.8402 60 60 60
0.9858 -0.0000 1.8402 60 60 60
8.5369 9.6965 1.8054 60 60 60
1.6502 8.4688 -0.1806 60 60 60
-1.7183 1.8952 1.3523 60 60 60
0.4464 -0.2510 1.5192 60 60 60
-10.7614 1.1068 -0.1018 60 60 60
-4.9242 -4.3435 0.0151 60 60 60
-6.6964 1.4383 2.2000 60 60 60
0.6060 2.1456 1.0732 60 60 60
-17.4285 -12.7792 0.0433 60 60 60
-1.5056 1.9427 1.6671 60 60 60
4.3210 -5.2865 0.4845 60 60 60
1.5133 -0.0077 1.5107 60 60 60
-2.5673 -8.4074 0.4818 60 60 60
0.9858 -0.0000 1.8402 60 60 60
-0.9847 -4.9409 0.3956 60 60 60
-1.3984 2.6404 1.7098 60 60 60
5.1943 2.3695 -0.0043 60 60 60
1.3082 -6.4523 0.2715 60 60 60
0.1369 0.1019 1.5060 60 60 60
-1.3938 2.7058 1.3686 60 60 60
3.0233 6.4215 -0.1752 60 60 60
22.4151 -19.4643 1.4628 60 60 60
3.7711 -4.7490 1.4396 60 60 60
1.6520 -0.3607 1.4417 60 60 60
-3.4342 1.7053 0.8212 60 60 60
1.0209 -0.4491 1.5686 60 60 60
0.9858 -0.0000 1.8402 60 60 60
-0.0565 2.0557 0.7492 60 60 60
2.0938 -4.0616 0.2339 60 60 60
-9.0094 -5.0534 0.7193 60 60 60
0.9858 -0.0000 1.8402 60 60 60
0.9858 -0.0000 1.8402 60 60 60
-1.2872 3.5702 2.1539 60 60 60
0.9858 -0.0000 1.8402 60 60 60
-1.4009 2.3495 0.8373 60 60 60
3.6661 8.6286 0.0342 60 60 60
11.8951 10.1796 2.4086 60 60 60
2.5914 -3.3775 -0.0362 60 60 60
0.8137 2.1451 1.1836 60 60 60
-5.8532 1.4639 1.0181 60 60 60
11.8170 10.0980 0.6765 60 60 60
2.8436 -2.9614 -0.0370 60 60 60
-8.4358 -11.8154 1.8896 60 60 60
-4.4986 -0.2940 1.1956 60 60 60
3.8782 6.4949 -0.1457 60 60 60
2.8122 8.7514 3.0386 60 60 60
-0.0212 -4.1412 1.8744 60 60 60
7.8732 -8.5302 -0.0543 60 60 60
0.9858 -0.0000 1.8402 60 60 60
-11.6716 -4.7605 2.7265 60 60 60
-5.8023 -0.7968 1.0350 60 60 60
2.9241 -4.0510 -0.0335 60 60 60
-0.0348 2.0781 1.5142 60 60 60
-0.0665 -4.4134 -0.0157 60 60 60
6.8270 -3.3711 -0.0573 60 60 60
0.9858 -0.0000 1.8402 60 60 60
0.9216 -3.4697 -0.0171 60 60 60
5.5855 -3.4348 -0.0507 60 60 60
-3.4393 1.8345 2.9624 60 60 60
7.4119 9.4332 1.8363 60 60 60
-0.4049 2.0061 0.7004 60 60 60
-5.7553 -4.4495 1.0075 60 60 60
-5.5520 -4.6093 1.9430 60 60 60
1.5919 3.4992 -0.0732 60 60 60
0.3125 0.2422 1.5199 60 60 60
4.4885 8.8265 2.8145 60 60 60
0.2945 0.2355 1.5135 60 60 60
1.4390 0.4264 1.5025 60 60 60
18.8185 -29.3430 4.9355 60 60 60
-1.2754 1.9905 2.2333 60 60 60
0.3983 0.1738 1.5315 60 60 60
4.9758 -4.1071 -0.0179 60 60 60
2.0126 7.5659 -0.1875 60 60 60
0.9858 -0.0000 1.8402 60 60 60
-1.5165 1.9729 2.1110 60 60 60
-2.9957 -0.4510 1.0818 60 60 60
9.9521 -6.4428 0.1083 60 60 60
6.2399 9.0607 0.1460 60 60 60
9.3317 6.9810 -0.0641 60 60 60
0.9858 -0.0000 1.8402 60 60 60
-0.4381 3.6407 1.9169 60 60 60
4.4017 -4.7262 0.2743 60 60 60
0.9858 -0.0000 1.8402 60 60 60
4.0303 -4.9211 1.5499 60 60 60
1.7981 -4.0787 0.2681 60 60 60
-1.2798 2.2507 0.8020 60 60 60
5.3163 -2.1435 -0.0266 60 60 60
1.4971 0.3174 1.4904 60 60 60
-1.5016 1.9549 1.5181 60 60 60
1.6642 -10.2659 1.0574 60 60 60
4.5472 -2.3536 -0.0285 60 60 60
-1.3328 1.9667 1.7409 60 60 60
1.5084 -0.1218 1.4878 60 60 60
0.2401 8.2586 3.4655 60 60 60
-4.3584 -11.2315 0.8938 60 60 60
-6.2904 -3.8890 0.0235 60 60 60
1.3166 0.5463 1.4825 60 60 60
0.9858 -0.0000 1.8402 60 60 60
-4.6533 1.6987 0.2902 60 60 60
-0.0882 -0.1907 1.4698 60 60 60
-1.2120 -3.1819 0.0108 60 60 60
8.1550 8.7203 -0.0604 60 60 60
0.3705 -0.4816 1.4809 60 60 60
3.6318 -9.8016 3.1138 60 60 60
0.0511 0.4843 1.4520 60 60 60
-0.0725 0.2331 1.4733 60 60 60
5.1057 -1.8039 -0.0226 60 60 60
-4.0994 1.7086 2.0806 60 60 60
-1.6565 1.9688 2.2775 60 60 60
2.2949 -3.2921 -0.0297 60 60 60
4.0935 6.9548 -0.0969 60 60 60
0.2604 0.2710 1.5148 60 60 60
0.1336 -0.0871 1.5048 60 60 60
-1.3113 -8.0536 0.7456 60 60 60
-7.5570 -3.8347 0.6929 60 60 60
3.4098 9.3292 1.5319 60 60 60
2.2692 -4.0478 0.2115 60 60 60
1.4361 4.6304 -0.1137 60 60 60
0.6072 2.1560 1.3462 60 60 60
5.0312 2.7738 -0.0199 60 60 60
0.4961 0.5258 1.4884 60 60 60
1.4813 0.1543 1.5011 60 60 60
0.6631 2.1222 0.9087 60 60 60
4.6043 -1.5599 -0.0119 60 60 60
0.7436 2.2445 1.4329 60 60 60
2.4677 8.7250 3.4656 60 60 60
-0.4679 2.0522 0.7375 60 60 60
22.1917 -16.0610 5.7954 60 60 60
5.6286 0.3578 0.0247 60 60 60
2.4217 -3.9898 1.6631 60 60 60
2.0196 4.1179 -0.0952 60 60 60
10.4592 9.9438 2.0721 60 60 60
5.4866 -5.8474 0.2138 60 60 60
1.4937 -0.4782 1.5189 60 60 60
3.9006 -4.8155 1.9534 60 60 60
1.0347 -4.5734 0.1554 60 60 60
2.2885 -4.1563 0.5108 60 60 60
-9.6681 -4.9364 1.2250 60 60 60
-4.6028 -3.6303 0.0286 60 60 60
5.3987 9.1294 2.3724 60 60 60
-1.6066 -2.6393 0.0131 60 60 60
0.9858 -0.0000 1.8402 60 60 60
3.9489 8.8853 2.1668 60 60 60
0.9858 -0.0000 1.8402 60 60 60
-7.2617 -7.6056 0.0946 60 60 60
-1.5468 3.7060 0.9104 60 60 60
-2.1396 1.9445 2.6909 60 60 60
1.4233 -0.3499 1.5144 60 60 60
3.8414 8.9181 3.0503 60 60 60
3.2380 9.8172 0.5870 60 60 60
0.7333 2.1334 0.8440 60 60 60
0.0033 2.0798 1.6774 60 60 60
-2.4768 -0.9051 0.8037 60 60 60
0.0640 -0.2519 1.4893 60 60 60
-17.1667 -12.8948 6.8727 60 60 60
2.5220 8.7320 3.4660 60 60 60
4.7555 5.7310 -0.1262 60 60 60
-2.8888 1.7492 0.7133 60 60 60
-3.9501 -11.2424 1.4620 60 60 60
3.6857 -3.1078 -0.0404 60 60 60
1.2737 0.4726 1.4953 60 60 60
2.4425 3.3386 -0.0633 60 60 60
1.3126 -4.1095 0.1967 60 60 60
-0.3168 2.0348 0.8422 60 60 60
0.9858 -0.0000 1.8402 60 60 60
-1.6957 1.9812 2.4422 60 60 60
-1.3045 3.7875 2.1644 60 60 60
-1.3827 2.4432 2.1163 60 60 60
2.9478 -9.9836 1.2441 60 60 60
-1.5821 4.0946 2.3103 60 60 60
9.4204 -9.0538 0.2627 60 60 60
-1.6528 -3.8873 0.0045 60 60 60
0.2180 0.0743 1.5179 60 60 60
0.9858 -0.0000 1.8402 60 60 60
7.0555 9.3698 1.8468 60 60 60
1.6471 -4.0836 0.1733 60 60 60
0.3509 2.1139 1.2451 60 60 60
2.9353 -4.4947 0.4450 60 60 60
2.0191 -10.0461 3.4212 60 60 60
-1.7550 7.9931 3.1829 60 60 60
-1.1401 2.0102 1.8766 60 60 60
1.1778 9.4522 0.3052 60 60 60
-42.8140 1.4629 -0.2085 60 60 60
0.9858 -0.0000 1.8402 60 60 60
0.9858 -0.0000 1.8402 60 60 60
0.9858 -0.0000 1.8402 60 60 60
0.4767 8.1889 1.6975 60 60 60
0.9858 -0.0000 1.8402 60 60 60
-1.3753 2.4847 2.4417 60 60 60
0.9858 -0.0000 1.8402 60 60 60
4.8312 9.0262 2.1471 60 60 60
2.6345 -9.9701 2.6769 60 60 60
-4.4219 -34.5856 4.4379 60 60 60
-0.3808 2.6758 0.5857 60 60 60
6.7301 -14.7072 0.0525 60 60 60
-0.8728 3.4977 1.9366 60 60 60
1.1488 -4.0810 1.0493 60 60 60
1.6565 5.8986 -0.1831 60 60 60
-1.8712 1.8351 0.7576 60 60 60
2.7405 -0.2698 1.0004 60 60 60
-2.7391 1.7613 0.8484 60 60 60
3.1361 5.6467 -0.1383 60 60 60
-0.0299 2.0519 1.1830 60 60 60
1.4860 -0.2094 1.4855 60 60 60
1.5887 0.0886 1.4798 60 60 60
0.9858 -0.0000 1.8402 60 60 60
0.9858 -0.0000 1.8402 60 60 60
5.1533 -1.6229 -0.0154 60 60 60
0.9858 -0.0000 1.8402 60 60 60
-10.5977 -12.1758 1.5559 60 60 60
-4.6781 1.6533 2.2446 60 60 60
2.4859 8.1222 -0.1667 60 60 60
0.4463 0.2609 1.5187 60 60 60
6.8863 7.6351 -0.0044 60 60 60
0.1945 2.0440 0.6629 60 60 60
4.1398 8.8910 1.5015 60 60 60
-3.0569 -0.0151 1.0777 60 60 60
0.0748 2.0370 0.6478 60 60 60
0.8663 2.2093 1.2733 60 60 60
-15.8436 -12.8187 4.5640 60 60 60
-2.6421 1.7962 0.9633 60 60 60
0.4633 -3.2697 -0.0039 60 60 60
0.2166 0.0049 1.5801 60 60 60
-3.9553 0.3321 1.2606 60 60 60
1.4996 -0.1972 1.4981 60 60 60
0.9858 -0.0000 1.8402 60 60 60
0.9858 -0.0000 1.8402 60 60 60
-4.8503 -0.0100 1.1566 60 60 60
0.3986 -0.3374 1.5129 60 60 60
1.5302 -7.3504 0.2223 60 60 60
1.3660 -10.3143 1.0689 60 60 60
0.9858 -0.0000 1.8402 60 60 60
0.0825 1.8116 2.2217 60 60 60
1.4407 0.3756 1.5184 60 60 60
3.9278 8.9158 2.6068 60 60 60
0.9858 -0.0000 1.8402 60 60 60
1.5273 0.0210 1.5191 60 60 60
1.3195 0.4418 1.4921 60 60 60
0.5131 -0.3861 1.5055 60 60 60
4.9751 -1.1088 0.0027 60 60 60
0.9858 -0.0000 1.8402 60 60 60
-3.0210 -3.2242 0.0307 60 60 60
0.8791 2.2078 1.2732 60 60 60
0.9858 -0.0000 1.8402 60 60 60
-1.9871 -4.5632 -0.0047 60 60 60
17.7604 -11.4311 1.5013 60 60 60
-7.6350 -3.8122 0.9080 60 60 60
3.1538 -3.5748 -0.0395 60 60 60
0.2156 -3.2377 0.0017 60 60 60
5.3808 -2.8985 -0.0388 60 60 60
3.6422 -9.7790 3.5940 60 60 60
7.9261 6.7746 -0.0648 60 60 60
0.9858 -0.0000 1.8402 60 60 60
8.8540 10.0484 3.9024 60 60 60
0.9257 4.7412 -0.1229 60 60 60
-5.2555 -11.3774 0.8849 60 60 60
0.9858 -0.0000 1.8402 60 60 60
-1.5219 1.8952 0.9910 60 60 60
0.9858 -0.0000 1.8402 60 60 60
6.2880 -3.1454 -0.0493 60 60 60
4.3963 -2.0858 -0.0262 60 60 60
-10.3957 -5.4396 -0.0127 60 60 60
1.3177 -0.4347 1.4926 60 60 60
0.5946 -10.3316 3.0375 60 60 60
1.7475 -3.3176 -0.0304 60 60 60
5.5233 -1.2899 0.0042 60 60 60
22.0764 -17.4517 0.8118 60 60 60
-1.2645 2.0934 0.5175 60 60 60
0.9858 -0.0000 1.8402 60 60 60
-4.9526 1.5631 1.2603 60 60 60
-1.7603 -2.7681 0.0275 60 60 60
2.2853 -10.0142 2.6923 60 60 60
2.0762 -10.0166 3.4147 60 60 60
-2.7487 1.8020 1.7287 60 60 60
6.1652 9.0518 0.1558 60 60 60
0.9858 -0.0000 1.8402 60 60 60
0.9858 -0.0000 1.8402 60 60 60
-33.0373 -9.0980 7.5355 60 60 60
1.2466 0.5409 1.4884 60 60 60
6.5222 9.2060 2.1127 60 60 60
-6.6364 1.4803 2.5610 60 60 60
0.2408 2.0831 1.2490 60 60 60
6.7383 5.3350 -0.0918 60 60 60
0.9858 -0.0000 1.8402 60 60 60
-4.0676 1.6749 0.1685 60 60 60
0.9858 -0.0000 1.8402 60 60 60
1.0834 -3.1061 -0.0242 60 60 60
6.5538 9.1479 0.8590 60 60 60
1.3392 0.4050 1.5003 60 60 60
-3.6995 -1.4255 1.3673 60 60 60
1.5748 -0.1263 1.4836 60 60 60
1.9204 -4.2496 0.5303 60 60 60
0.7075 2.2208 1.4382 60 60 60
0.5465 8.1730 2.8437 60 60 60
0.9858 -0.0000 1.8402 60 60 60
2.4880 -3.6955 -0.0353 60 60 60
1.3377 0.4371 1.5045 60 60 60
-2.1012 -4.0374 0.0032 60 60 60
17.9524 -32.2786 6.9338 60 60 60
-2.8005 -2.9035 0.0389 60 60 60
6.6802 9.2268 2.1101 60 60 60
7.8355 -12.1978 0.1765 60 60 60
-1.4142 2.0033 2.4750 60 60 60
0.9858 -0.0000 1.8402 60 60 60
1.1546 0.4485 1.5467 60 60 60
-1.6726 1.9348 1.8157 60 60 60
1.5038 0.1054 1.4938 60 60 60
0.5253 8.1938 1.6952 60 60 60
-0.6756 -4.1923 1.9045 60 60 60
-2.8426 1.8249 1.9242 60 60 60
3.5624 -4.6228 1.7071 60 60 60
-7.9352 -18.3376 6.0578 60 60 60
-8.3543 -5.1406 0.0054 60 60 60
3.2221 4.5144 -0.0980 60 60 60
0.1523 0.2130 1.5032 60 60 60
0.9858 -0.0000 1.8402 60 60 60
-1.1497 2.0045 2.0132 60 60 60
-17.4497 -13.1801 3.1813 60 60 60
-2.4973 1.8028 1.0849 60 60 60
1.3227 -0.4307 1.4924 60 60 60
9.3796 9.7157 2.9797 60 60 60
0.2200 0.1406 1.5146 60 60 60
-2.0167 1.8570 1.3233 60 60 60
-1.4030 2.7104 2.2125 60 60 60
0.9858 -0.0000 1.8402 60 60 60
-32.7423 -21.3789 9.9500 60 60 60
4.8080 2.4956 -0.0165 60 60 60
1.4402 -0.3631 1.5198 60 60 60
5.9006 -5.6966 1.7705 60 60 60
-1.4428 1.9116 1.2312 60 60 60
4.3347 -4.7488 0.2824 60 60 60
0.4673 0.3494 1.5210 60 60 60
-0.0657 0.2006 1.4780 60 60 60
3.0125 -3.6727 -0.0379 60 60 60
-9.2198 -12.0227 0.8068 60 60 60
0.9858 -0.0000 1.8402 60 60 60
8.8653 -5.6648 0.0845 60 60 60
-1.2507 -4.2440 1.3713 60 60 60
20.9086 -25.0289 3.0786 60 60 60
-0.9157 -4.2122 -0.0044 60 60 60
0.9223 4.4438 -0.1216 60 60 60
-2.7491 -2.9676 0.0364 60 60 60
-2.6752 1.7803 0.7589 60 60 60
1.3539 0.4964 1.4909 60 60 60
-0.5501 3.5578 1.9219 60 60 60
-1.5294 3.5404 1.2560 60 60 60
-10.2657 -4.3728 1.5044 60 60 60
-2.3048 1.9419 2.7252 60 60 60
0.5077 2.1126 1.0260 60 60 60
4.0382 -4.6801 0.0674 60 60 60
2.5721 -3.1505 -0.0376 60 60 60
-3.1252 -4.3733 0.0061 60 60 60
-0.9289 2.2386 0.5598 60 60 60
-1.8871 -4.3304 1.9601 60 60 60
-1.5465 3.6700 1.4487 60 60 60
-1.5341 3.6422 2.3826 60 60 60
3.5055 4.7863 -0.1041 60 60 60
1.8446 -0.5048 1.3462 60 60 60
-32.1887 -21.2904 9.8393 60 60 60
-3.5986 1.8038 2.8747 60 60 60
3.0481 -9.8746 3.1320 60 60 60
6.2406 6.7538 -0.0053 60 60 60
0.2908 -0.1982 1.5160 60 60 60
0.9858 -0.0000 1.8402 60 60 60
2.1360 -3.5995 -0.0295 60 60 60
22.5638 -14.6482 5.6838 60 60 60
13.0824 -8.6805 0.2084 60 60 60
-3.4769 1.8197 2.9696 60 60 60
0.0160 -4.6810 0.0067 60 60 60
2.2340 -4.0309 0.8691 60 60 60
4.4908 -1.8689 -0.0199 60 60 60
4.4937 5.9957 -0.1351 60 60 60
0.5629 2.1373 1.4037 60 60 60
-1.3718 2.3211 1.6480 60 60 60
2.8679 9.7255 -0.0883 60 60 60
1.1054 -5.9862 0.2458 60 60 60
0.9267 2.2030 1.2176 60 60 60
1.5197 -0.0980 1.5013 60 60 60
0.9858 -0.0000 1.8402 60 60 60
-1.2369 8.0297 1.7734 60 60 60
5.3133 -4.3976 -0.0060 60 60 60
-0.0186 8.1321 2.1014 60 60 60
19.2167 -27.3253 7.0800 60 60 60
1.8037 -10.1317 2.0081 60 60 60
0.3081 -0.0155 1.5382 60 60 60
9.9892 -15.0697 2.1971 60 60 60
13.1151 10.2358 1.6783 60 60 60
-1.4447 3.0973 1.6868 60 60 60
-6.6700 -9.4297 0.4631 60 60 60
-5.4896 0.7498 -0.0313 60 60 60
5.0324 -0.7707 0.0091 60 60 60
1.9736 -10.1418 1.7640 60 60 60
6.2687 -3.2191 -0.0543 60 60 60
0.0297 -10.4258 2.5861 60 60 60
-3.3407 -3.4861 0.0290 60 60 60
3.1743 -3.5619 -0.0405 60 60 60
21.7063 -19.9592 0.8213 60 60 60
1.7853 -6.3699 0.2580 60 60 60
-6.3627 -7.9646 0.1227 60 60 60
-1.6572 -3.1696 0.0214 60 60 60
2.5608 9.7366 1.3360 60 60 60
4.6546 -4.8138 2.6469 60 60 60
0.9858 -0.0000 1.8402 60 60 60
0.9858 -0.0000 1.8402 60 60 60
-1.2825 3.4896 1.8589 60 60 60
0.9858 -0.0000 1.8402 60 60 60
-1.3972 1.9857 1.9564 60 60 60
0.9858 -0.0000 1.8402 60 60 60
-3.1349 0.1969 1.0625 60 60 60
3.9560 -4.3361 0.0324 60 60 60
-4.3217 1.7554 -0.0588 60 60 60
-6.1107 1.7459 -0.0794 60 60 60
-0.4251 -7.7710 0.7718 60 60 60
-0.2269 2.0663 1.3375 60 60 60
0.9858 -0.0000 1.8402 60 60 60
6.2168 9.0858 0.6441 60 60 60
5.4251 2.8118 -0.0190 60 60 60
3.9400 8.7791 -0.0214 60 60 60
9.9103 -14.2192 1.3845 60 60 60
0.1429 -0.0670 1.5093 60 60 60
1.3200 7.1489 -0.2079 60 60 60
0.0568 -0.4478 1.4574 60 60 60
4.1023 -4.9578 1.8171 60 60 60
3.9823 -3.6511 -0.0515 60 60 60
8.1018 9.4735 0.4297 60 60 60
0.4220 2.1195 1.1343 60 60 60
-2.1536 8.0003 3.6367 60 60 60
1.1371 7.8478 -0.1994 60 60 60
-9.2999 -5.0721 2.0344 60 60 60
0.2298 2.0850 1.3028 60 60 60
6.2337 4.6528 -0.0662 60 60 60
-1.4540 3.1240 1.8703 60 60 60
0.9858 -0.0000 1.8402 60 60 60
2.7817 5.2860 -0.1236 60 60 60
1.6330 3.6992 -0.0715 60 60 60
0.1931 -3.4386 -0.0049 60 60 60
-0.1786 -4.8583 0.4485 60 60 60
0.4160 -0.2123 1.5315 60 60 60
3.2450 -10.1005 0.2463 60 60 60
18.8966 -28.6545 6.4605 60 60 60
1.6057 0.0193 1.5290 60 60 60
0.1002 1.8278 1.9816 60 60 60
-0.5215 2.6465 0.5750 60 60 60
0.6581 2.7006 1.4811 60 60 60
3.1019 9.8243 1.3024 60 60 60
0.9858 -0.0000 1.8402 60 60 60
3.5548 8.7726 0.8930 60 60 60
-4.7386 -11.2842 2.3655 60 60 60
1.3758 -0.3787 1.4911 60 60 60
31.1654 21.3153 0.5074 60 60 60
-5.4872 1.1259 -0.0476 60 60 60
0.9858 -0.0000 1.8402 60 60 60
-2.6551 -1.4606 0.7936 60 60 60
1.3398 -4.1946 0.0456 60 60 60
4.4739 -8.3919 -0.0676 60 60 60
0.9858 -0.0000 1.8402 60 60 60
-33.0038 -9.3067 7.5359 60 60 60
0.9858 -0.0000 1.8402 60 60 60
0.9096 -4.7056 0.3583 60 60 60
4.5702 -4.7181 0.3905 60 60 60
0.9076 8.4746 3.4686 60 60 60
-1.4495 1.9065 1.0032 60 60 60
2.1908 -4.0577 0.1067 60 60 60
-1.3517 1.9025 0.7124 60 60 60
-5.4418 1.4225 -0.0533 60 60 60
0.9858 -0.0000 1.8402 60 60 60
-0.4748 -10.6102 1.1264 60 60 60
0.9858 -0.0000 1.8402 60 60 60
-10.8580 1.8047 -0.1335 60 60 60
-0.3139 -4.4342 0.0875 60 60 60
0.6257 -3.9167 -0.0180 60 60 60
0.8829 -3.2707 -0.0077 60 60 60
0.0434 1.8425 2.2815 60 60 60
4.7644 -5.6133 0.8546 60 60 60
5.3164 -0.5628 0.0179 60 60 60
0.8348 -10.2954 3.0213 60 60 60
-0.8097 4.0170 1.8330 60 60 60
-3.7020 1.6592 0.8937 60 60 60
0.9900 -4.5162 0.4142 60 60 60
-21.5665 3.7601 -0.3044 60 60 60
0.2869 -0.0237 1.5478 60 60 60
1.4725 0.2567 1.5017 60 60 60
-8.5492 -11.6657 5.1038 60 60 60
5.2119 1.3154 0.0085 60 60 60
0.9858 -0.0000 1.8402 60 60 60
-9.2969 -11.7207 5.2387 60 60 60
5.7065 -2.1324 -0.0265 60 60 60
-0.5140 -3.7564 -0.0059 60 60 60
3.7506 5.1609 -0.1128 60 60 60
1.5930 -0.2452 1.4745 60 60 60
-2.5868 -0.7622 0.9668 60 60 60
5.4023 -2.8757 -0.0415 60 60 60
-5.5278 1.5261 1.6788 60 60 60
-0.1542 2.0521 1.1114 60 60 60
0.0740 8.0953 1.1462 60 60 60
2.7199 -4.1075 1.9556 60 60 60
5.5899 -0.7658 0.0193 60 60 60
1.5750 -0.1486 1.4807 60 60 60
-1.6923 1.8861 1.0393 60 60 60
0.0922 1.8381 1.9346 60 60 60
-1.0281 2.3068 0.5942 60 60 60
0.9858 -0.0000 1.8402 60 60 60
0.9858 -0.0000 1.8402 60 60 60
1.4805 0.4511 1.5347 60 60 60
-7.8167 -11.6373 3.2362 60 60 60
1.6251 0.1567 1.4724 60 60 60
0.9858 -0.0000 1.8402 60 60 60
0.9858 -0.0000 1.8402 60 60 60
3.8217 -9.8524 0.9608 60 60 60
-4.1229 -0.8696 1.5915 60 60 60
1.4255 -0.3075 1.5100 60 60 60
-3.0705 0.0304 1.0752 60 60 60
0.9858 -0.0000 1.8402 60 60 60
-4.3039 -3.0593 0.0338 60 60 60
1.5805 -0.2953 1.4704 60 60 60
3.2343 3.6648 -0.0679 60 60 60
0.6383 -10.4413 0.8491 60 60 60
1.5899 0.2683 1.4735 60 60 60
-3.3385 -11.0267 3.3963 60 60 60
1.4010 7.1242 -0.2062 60 60 60
0.2786 2.0995 1.3011 60 60 60
0.9650 -4.1106 1.3482 60 60 60
1.7072 -3.3204 -0.0248 60 60 60
1.1055 5.1062 -0.1455 60 60 60
-2.6331 -0.1399 0.8908 60 60 60
2.4098 9.6837 0.8889 60 60 60
1.1973 -3.6429 -0.0204 60 60 60
0.9858 -0.0000 1.8402 60 60 60
-2.4823 1.8462 1.6404 60 60 60
2.7574 8.7320 3.0369 60 60 60
-3.3816 -2.7940 0.0348 60 60 60
17.8601 -10.9387 1.0264 60 60 60
-1.4050 2.6934 2.3823 60 60 60
0.9858 -0.0000 1.8402 60 60 60
2.9000 -4.1982 1.8462 60 60 60
-2.8787 1.7348 0.3944 60 60 60
2.3022 8.6435 2.6215 60 60 60
1.6076 0.3942 1.4571 60 60 60
0.2271 2.0938 1.7258 60 60 60
-17.6638 -13.1713 3.1952 60 60 60
0.9858 -0.0000 1.8402 60 60 60
5.0607 0.5864 0.0133 60 60 60
1.3157 7.7956 -0.1961 60 60 60
5.0115 9.1331 3.3188 60 60 60
-0.7383 -4.1919 0.7240 60 60 60
1.1274 -0.4155 1.5689 60 60 60
1.9242 -3.9289 -0.0270 60 60 60
2.5526 -3.1588 -0.0358 60 60 60
4.4321 -4.8640 1.1076 60 60 60
-2.0636 -8.2573 0.5118 60 60 60
0.9041 -10.3443 1.5725 60 60 60
0.2134 2.1260 1.9349 60 60 60
-2.2630 -3.4426 0.0240 60 60 60
1.4877 -0.5201 1.4880 60 60 60
-5.8987 -9.2045 0.2479 60 60 60
3.7301 -9.8291 2.1598 60 60 60
-1.3673 1.9921 2.0993 60 60 60
-3.1839 1.8370 2.6843 60 60 60
-13.1774 -12.3296 5.5656 60 60 60
2.3808 9.6937 1.3474 60 60 60
6.6690 -11.6797 0.0193 60 60 60
0.1189 2.1114 2.1545 60 60 60
0.9858 -0.0000 1.8402 60 60 60
8.0406 9.4843 0.7130 60 60 60
-9.2074 -14.2247 1.4530 60 60 60
-0.2902 2.6859 0.5945 60 60 60
5.0368 6.8833 -0.0342 60 60 60
2.7258 -0.3632 1.0000 60 60 60
3.6786 -3.4897 -0.0398 60 60 60
1.1558 -10.1824 3.7212 60 60 60
10.9091 -8.9414 0.1015 60 60 60
-2.2327 1.9040 2.1699 60 60 60
4.6720 2.0846 -0.0064 60 60 60
-4.8546 -1.0984 1.4154 60 60 60
-0.4384 2.2342 1.1578 60 60 60
0.9858 -0.0000 1.8402 60 60 60
4.7121 4.8977 -0.0979 60 60 60
6.1565 -2.0124 -0.0199 60 60 60
-8.1428 -9.7770 0.3583 60 60 60
4.3012 -3.2660 -0.0418 60 60 60
3.2075 -4.3973 1.7242 60 60 60
-1.2052 3.4398 1.6668 60 60 60
1.5068 4.9760 -0.1266 60 60 60
2.8752 9.7951 1.5502 60 60 60
-3.5589 -3.2514 0.0296 60 60 60
-5.4218 -9.1142 0.5467 60 60 60
-15.6956 -12.7301 5.5426 60 60 60
-0.1149 -7.7964 0.1935 60 60 60
0.7651 -4.6706 0.1320 60 60 60
-5.8331 -11.4694 0.8773 60 60 60
0.9858 -0.0000 1.8402 60 60 60
-3.0578 1.7123 0.5673 60 60 60
7.4733 -3.5429 -0.0592 60 60 60
1.2613 0.4704 1.5010 60 60 60
-3.1517 0.1741 1.0595 60 60 60
6.1770 9.1314 1.8714 60 60 60
-7.8890 -11.6244 3.9339 60 60 60
-3.0345 -11.0447 3.9306 60 60 60
-1.3923 2.2874 0.8534 60 60 60
0.7237 2.0958 0.6106 60 60 60
5.3293 0.3371 0.0241 60 60 60
1.6678 0.0993 1.4749 60 60 60
-0.6855 8.1231 3.1107 60 60 60
0.9858 -0.0000 1.8402 60 60 60
0.9858 -0.0000 1.8402 60 60 60
-11.0291 -4.8389 2.3817 60 60 60
1.7928 9.6358 2.0565 60 60 60
0.9858 -0.0000 1.8402 60 60 60
1.3213 -0.4448 1.4863 60 60 60
3.2568 4.0524 -0.0836 60 60 60
9.8481 -8.5575 0.5393 60 60 60
-5.5470 -18.6536 2.0866 60 60 60
0.1860 2.0315 0.6681 60 60 60
4.7141 1.9947 -0.0065 60 60 60
2.9593 3.8992 -0.0814 60 60 60
0.3275 2.1800 0.6750 60 60 60
-1.3615 7.9788 1.9726 60 60 60
22.7410 -17.9640 2.7507 60 60 60
-0.6436 2.5878 0.3179 60 60 60
0.2928 0.1932 1.5189 60 60 60
0.1176 2.0414 0.7181 60 60 60
-0.2055 2.0847 2.3568 60 60 60
4.1797 8.8803 1.2781 60 60 60
1.4576 -0.2820 1.5007 60 60 60
-9.8847 -5.0346 0.9333 60 60 60
1.6636 -10.0863 3.1996 60 60 60
6.0578 -5.3281 0.0118 60 60 60
1.6294 -0.1262 1.4722 60 60 60
8.2972 -6.3698 0.1104 60 60 60
0.9858 -0.0000 1.8402 60 60 60
1.2394 -3.6447 -0.0250 60 60 60
5.5803 2.4072 -0.0071 60 60 60
2.4155 8.7213 3.4658 60 60 60
2.5781 -9.9951 2.6809 60 60 60
5.3780 6.5581 -0.0318 60 60 60
-3.6948 1.7124 1.5979 60 60 60
-3.2056 -8.5225 0.2229 60 60 60
-7.4200 -11.5540 3.8726 60 60 60
-6.5002 -11.4560 2.7920 60 60 60
21.4994 -22.9441 2.2573 60 60 60
-3.0062 0.1895 0.9896 60 60 60
-6.7206 -0.0125 1.1184 60 60 60
1.0232 -10.1803 3.2396 60 60 60
1.6675 0.0048 1.5370 60 60 60
0.9858 -0.0000 1.8402 60 60 60
-0.2952 2.0183 1.0427 60 60 60
0.9858 -0.0000 1.8402 60 60 60
-4.0914 -4.6449 1.7403 60 60 60
-0.5042 2.1090 0.7786 60 60 60
15.8354 -40.7228 6.0949 60 60 60
1.4912 0.1981 1.4865 60 60 60
9.9694 -14.9446 0.1563 60 60 60
0.9858 -0.0000 1.8402 60 60 60
1.5572 -0.2229 1.4785 60 60 60
0.9858 -0.0000 1.8402 60 60 60
-4.1832 -0.1854 1.5973 60 60 60
-1.4691 3.3460 1.0859 60 60 60
-1.0067 8.1808 2.9442 60 60 60
4.9247 2.2230 -0.0083 60 60 60
0.9858 -0.0000 1.8402 60 60 60
-0.2317 2.0445 1.5128 60 60 60
-8.0430 -11.9704 0.8246 60 60 60
-2.9462 -0.3089 1.0948 60 60 60
-2.9982 1.7823 1.7250 60 60 60
1.3491 0.4249 1.5049 60 60 60
2.6297 8.7532 3.4685 60 60 60
0.8597 2.1173 0.6627 60 60 60
0.5585 -0.4387 1.5012 60 60 60
0.3382 -0.1846 1.5190 60 60 60
-1.4641 1.9739 2.0327 60 60 60
5.1463 -2.5396 -0.0334 60 60 60
5.8767 1.1737 0.0226 60 60 60
18.9044 -29.1068 4.9139 60 60 60
0.8390 2.3919 1.4026 60 60 60
0.4523 8.1688 2.8483 60 60 60
5.5740 8.9839 -0.0097 60 60 60
1.8125 4.8721 -0.1192 60 60 60
3.7672 -9.8764 0.9627 60 60 60
13.5129 -7.6252 0.2071 60 60 60
-2.6507 -4.1389 0.0082 60 60 60
4.1485 -2.9414 -0.0286 60 60 60
0.3897 0.3236 1.5153 60 60 60
