ply
format ascii 1.0
element vertex 1443
property float x
property float y
property float z
property uchar red
property uchar green
property uchar blue
end_header
18.1178 -3.1967 2.5668 0 220 0
18.1283 -3.1407 2.5668 0 220 0
18.1389 -3.0848 2.5668 0 220 0
18.1494 -3.0288 2.5668 0 220 0
18.1600 -2.9729 2.5668 0 220 0
18.1705 -2.9169 2.5668 0 220 0
18.1811 -2.8610 2.5668 0 220 0
18.1916 -2.8050 2.5668 0 220 0
18.2022 -2.7490 2.5668 0 220 0
18.2127 -2.6931 2.5668 0 220 0
18.2233 -2.6371 2.5668 0 220 0
18.2338 -2.5812 2.5668 0 220 0
18.2444 -2.5252 2.5668 0 220 0
18.2549 -2.4693 2.5668 0 220 0
18.2655 -2.4133 2.5668 0 220 0
18.2760 -2.3574 2.5668 0 220 0
18.2866 -2.3014 2.5668 0 220 0
18.2971 -2.2455 2.5668 0 220 0
18.3077 -2.1895 2.5668 0 220 0
18.3182 -2.1336 2.5668 0 220 0
18.3288 -2.0776 2.5668 0 220 0
18.3393 -2.0217 2.5668 0 220 0
18.3499 -1.9657 2.5668 0 220 0
18.3604 -1.9097 2.5668 0 220 0
18.3710 -1.8538 2.5668 0 220 0
18.3815 -1.7978 2.5668 0 220 0
18.3921 -1.7419 2.5668 0 220 0
18.4026 -1.6859 2.5668 0 220 0
18.4132 -1.6300 2.5668 0 220 0
18.4237 -1.5740 2.5668 0 220 0
18.4343 -1.5181 2.5668 0 220 0
18.4448 -1.4621 2.5668 0 220 0
18.4554 -1.4062 2.5668 0 220 0
18.4659 -1.3502 2.5668 0 220 0
18.4765 -1.2943 2.5668 0 220 0
18.4870 -1.2383 2.5668 0 220 0
18.4976 -1.1823 2.5668 0 220 0
18.5081 -1.1264 2.5668 0 220 0
18.5187 -1.0704 2.5668 0 220 0
18.5292 -1.0145 2.5668 0 220 0
18.5398 -0.9585 2.5668 0 220 0
18.5503 -0.9026 2.5668 0 220 0
18.5609 -0.8466 2.5668 0 220 0
18.5714 -0.7907 2.5668 0 220 0
18.5820 -0.7347 2.5668 0 220 0
18.5925 -0.6788 2.5668 0 220 0
18.6031 -0.6228 2.5668 0 220 0
18.6136 -0.5669 2.5668 0 220 0
18.6242 -0.5109 2.5668 0 220 0
18.6347 -0.4549 2.5668 0 220 0
18.6453 -0.3990 2.5668 0 220 0
18.6558 -0.3430 2.5668 0 220 0
18.6663 -0.2871 2.5668 0 220 0
18.6769 -0.2311 2.5668 0 220 0
18.6874 -0.1752 2.5668 0 220 0
18.6874 -0.1752 2.5668 0 220 0
18.6620 -0.1704 2.5668 0 220 0
18.6366 -0.1656 2.5668 0 220 0
18.6112 -0.1608 2.5668 0 220 0
18.5858 -0.1560 2.5668 0 220 0
18.5604 -0.1512 2.5668 0 220 0
18.5350 -0.1464 2.5668 0 220 0
18.5096 -0.1416 2.5668 0 220 0
18.4842 -0.1369 2.5668 0 220 0
18.4587 -0.1321 2.5668 0 220 0
18.4333 -0.1273 2.5668 0 220 0
18.4079 -0.1225 2.5668 0 220 0
18.3825 -0.1177 2.5668 0 220 0
18.3571 -0.1129 2.5668 0 220 0
18.3317 -0.1081 2.5668 0 220 0
18.3063 -0.1033 2.5668 0 220 0
18.2809 -0.0985 2.5668 0 220 0
18.2555 -0.0937 2.5668 0 220 0
18.2301 -0.0889 2.5668 0 220 0
18.2046 -0.0842 2.5668 0 220 0
18.1792 -0.0794 2.5668 0 220 0
18.1538 -0.0746 2.5668 0 220 0
18.1284 -0.0698 2.5668 0 220 0
18.1030 -0.0650 2.5668 0 220 0
18.0776 -0.0602 2.5668 0 220 0
18.0522 -0.0554 2.5668 0 220 0
18.0268 -0.0506 2.5668 0 220 0
18.0014 -0.0458 2.5668 0 220 0
17.9759 -0.0410 2.5668 0 220 0
17.9505 -0.0362 2.5668 0 220 0
17.9251 -0.0315 2.5668 0 220 0
17.8997 -0.0267 2.5668 0 220 0
17.8743 -0.0219 2.5668 0 220 0
17.8489 -0.0171 2.5668 0 220 0
17.8235 -0.0123 2.5668 0 220 0
17.7981 -0.0075 2.5668 0 220 0
17.7727 -0.0027 2.5668 0 220 0
17.7472 0.0021 2.5668 0 220 0
17.7218 0.0069 2.5668 0 220 0
17.6964 0.0117 2.5668 0 220 0
17.6710 0.0165 2.5668 0 220 0
17.6456 0.0212 2.5668 0 220 0
17.6202 0.0260 2.5668 0 220 0
17.5948 0.0308 2.5668 0 220 0
17.5694 0.0356 2.5668 0 220 0
17.5440 0.0404 2.5668 0 220 0
17.5185 0.0452 2.5668 0 220 0
17.4931 0.0500 2.5668 0 220 0
17.4677 0.0548 2.5668 0 220 0
17.4423 0.0596 2.5668 0 220 0
17.4169 0.0644 2.5668 0 220 0
17.3915 0.0692 2.5668 0 220 0
17.3661 0.0739 2.5668 0 220 0
17.3407 0.0787 2.5668 0 220 0
17.3153 0.0835 2.5668 0 220 0
17.2899 0.0883 2.5668 0 220 0
17.2644 0.0931 2.5668 0 220 0
17.2390 0.0979 2.5668 0 220 0
17.2136 0.1027 2.5668 0 220 0
17.1882 0.1075 2.5668 0 220 0
17.1628 0.1123 2.5668 0 220 0
17.1374 0.1171 2.5668 0 220 0
17.1120 0.1219 2.5668 0 220 0
17.0866 0.1266 2.5668 0 220 0
17.0612 0.1314 2.5668 0 220 0
17.0357 0.1362 2.5668 0 220 0
17.0103 0.1410 2.5668 0 220 0
16.9849 0.1458 2.5668 0 220 0
16.9595 0.1506 2.5668 0 220 0
16.9341 0.1554 2.5668 0 220 0
16.9087 0.1602 2.5668 0 220 0
16.8833 0.1650 2.5668 0 220 0
16.8579 0.1698 2.5668 0 220 0
16.8325 0.1746 2.5668 0 220 0
16.8070 0.1793 2.5668 0 220 0
16.7816 0.1841 2.5668 0 220 0
16.7562 0.1889 2.5668 0 220 0
16.7308 0.1937 2.5668 0 220 0
16.7054 0.1985 2.5668 0 220 0
16.6800 0.2033 2.5668 0 220 0
16.6546 0.2081 2.5668 0 220 0
16.6292 0.2129 2.5668 0 220 0
16.6038 0.2177 2.5668 0 220 0
16.5783 0.2225 2.5668 0 220 0
16.5529 0.2273 2.5668 0 220 0
16.5275 0.2320 2.5668 0 220 0
16.5021 0.2368 2.5668 0 220 0
16.4767 0.2416 2.5668 0 220 0
16.4513 0.2464 2.5668 0 220 0
16.4259 0.2512 2.5668 0 220 0
16.4005 0.2560 2.5668 0 220 0
16.3751 0.2608 2.5668 0 220 0
16.3496 0.2656 2.5668 0 220 0
16.3242 0.2704 2.5668 0 220 0
16.2988 0.2752 2.5668 0 220 0
16.2734 0.2800 2.5668 0 220 0
16.2480 0.2847 2.5668 0 220 0
16.2226 0.2895 2.5668 0 220 0
16.1972 0.2943 2.5668 0 220 0
16.1718 0.2991 2.5668 0 220 0
16.1718 0.2991 0.3378 0 220 0
16.1718 0.2991 0.3603 0 220 0
16.1718 0.2991 0.3829 0 220 0
16.1718 0.2991 0.4054 0 220 0
16.1718 0.2991 0.4279 0 220 0
16.1718 0.2991 0.4504 0 220 0
16.1718 0.2991 0.4729 0 220 0
16.1718 0.2991 0.4954 0 220 0
16.1718 0.2991 0.5180 0 220 0
16.1718 0.2991 0.5405 0 220 0
16.1718 0.2991 0.5630 0 220 0
16.1718 0.2991 0.5855 0 220 0
16.1718 0.2991 0.6080 0 220 0
16.1718 0.2991 0.6305 0 220 0
16.1718 0.2991 0.6530 0 220 0
16.1718 0.2991 0.6756 0 220 0
16.1718 0.2991 0.6981 0 220 0
16.1718 0.2991 0.7206 0 220 0
16.1718 0.2991 0.7431 0 220 0
16.1718 0.2991 0.7656 0 220 0
16.1718 0.2991 0.7881 0 220 0
16.1718 0.2991 0.8106 0 220 0
16.1718 0.2991 0.8332 0 220 0
16.1718 0.2991 0.8557 0 220 0
16.1718 0.2991 0.8782 0 220 0
16.1718 0.2991 0.9007 0 220 0
16.1718 0.2991 0.9232 0 220 0
16.1718 0.2991 0.9457 0 220 0
16.1718 0.2991 0.9683 0 220 0
16.1718 0.2991 0.9908 0 220 0
16.1718 0.2991 1.0133 0 220 0
16.1718 0.2991 1.0358 0 220 0
16.1718 0.2991 1.0583 0 220 0
16.1718 0.2991 1.0808 0 220 0
16.1718 0.2991 1.1033 0 220 0
16.1718 0.2991 1.1259 0 220 0
16.1718 0.2991 1.1484 0 220 0
16.1718 0.2991 1.1709 0 220 0
16.1718 0.2991 1.1934 0 220 0
16.1718 0.2991 1.2159 0 220 0
16.1718 0.2991 1.2384 0 220 0
16.1718 0.2991 1.2610 0 220 0
16.1718 0.2991 1.2835 0 220 0
16.1718 0.2991 1.3060 0 220 0
16.1718 0.2991 1.3285 0 220 0
16.1718 0.2991 1.3510 0 220 0
16.1718 0.2991 1.3735 0 220 0
16.1718 0.2991 1.3960 0 220 0
16.1718 0.2991 1.4186 0 220 0
16.1718 0.2991 1.4411 0 220 0
16.1718 0.2991 1.4636 0 220 0
16.1718 0.2991 1.4861 0 220 0
16.1718 0.2991 1.5086 0 220 0
16.1718 0.2991 1.5311 0 220 0
16.1718 0.2991 1.5536 0 220 0
16.1718 0.2991 1.5762 0 220 0
16.1718 0.2991 1.5987 0 220 0
16.1718 0.2991 1.6212 0 220 0
16.1718 0.2991 1.6437 0 220 0
16.1718 0.2991 1.6662 0 220 0
16.1718 0.2991 1.6887 0 220 0
16.1718 0.2991 1.7113 0 220 0
16.1718 0.2991 1.7338 0 220 0
16.1718 0.2991 1.7563 0 220 0
16.1718 0.2991 1.7788 0 220 0
16.1718 0.2991 1.8013 0 220 0
16.1718 0.2991 1.8238 0 220 0
16.1718 0.2991 1.8463 0 220 0
16.1718 0.2991 1.8689 0 220 0
16.1718 0.2991 1.8914 0 220 0
16.1718 0.2991 1.9139 0 220 0
16.1718 0.2991 1.9364 0 220 0
16.1718 0.2991 1.9589 0 220 0
16.1718 0.2991 1.9814 0 220 0
16.1718 0.2991 2.0040 0 220 0
16.1718 0.2991 2.0265 0 220 0
16.1718 0.2991 2.0490 0 220 0
16.1718 0.2991 2.0715 0 220 0
16.1718 0.2991 2.0940 0 220 0
16.1718 0.2991 2.1165 0 220 0
16.1718 0.2991 2.1390 0 220 0
16.1718 0.2991 2.1616 0 220 0
16.1718 0.2991 2.1841 0 220 0
16.1718 0.2991 2.2066 0 220 0
16.1718 0.2991 2.2291 0 220 0
16.1718 0.2991 2.2516 0 220 0
16.1718 0.2991 2.2741 0 220 0
16.1718 0.2991 2.2966 0 220 0
16.1718 0.2991 2.3192 0 220 0
16.1718 0.2991 2.3417 0 220 0
16.1718 0.2991 2.3642 0 220 0
16.1718 0.2991 2.3867 0 220 0
16.1718 0.2991 2.4092 0 220 0
16.1718 0.2991 2.4317 0 220 0
16.1718 0.2991 2.4543 0 220 0
16.1718 0.2991 2.4768 0 220 0
16.1718 0.2991 2.4993 0 220 0
16.1718 0.2991 2.5218 0 220 0
16.1718 0.2991 2.5443 0 220 0
16.1718 0.2991 2.5668 0 220 0
15.1274 -5.2403 0.3378 0 220 0
15.1274 -5.2403 0.3603 0 220 0
15.1274 -5.2403 0.3829 0 220 0
15.1274 -5.2403 0.4054 0 220 0
15.1274 -5.2403 0.4279 0 220 0
15.1274 -5.2403 0.4504 0 220 0
15.1274 -5.2403 0.4729 0 220 0
15.1274 -5.2403 0.4954 0 220 0
15.1274 -5.2403 0.5180 0 220 0
15.1274 -5.2403 0.5405 0 220 0
15.1274 -5.2403 0.5630 0 220 0
15.1274 -5.2403 0.5855 0 220 0
15.1274 -5.2403 0.6080 0 220 0
15.1274 -5.2403 0.6305 0 220 0
15.1274 -5.2403 0.6530 0 220 0
15.1274 -5.2403 0.6756 0 220 0
15.1274 -5.2403 0.6981 0 220 0
15.1274 -5.2403 0.7206 0 220 0
15.1274 -5.2403 0.7431 0 220 0
15.1274 -5.2403 0.7656 0 220 0
15.1274 -5.2403 0.7881 0 220 0
15.1274 -5.2403 0.8106 0 220 0
15.1274 -5.2403 0.8332 0 220 0
15.1274 -5.2403 0.8557 0 220 0
15.1274 -5.2403 0.8782 0 220 0
15.1274 -5.2403 0.9007 0 220 0
15.1274 -5.2403 0.9232 0 220 0
15.1274 -5.2403 0.9457 0 220 0
15.1274 -5.2403 0.9683 0 220 0
15.1274 -5.2403 0.9908 0 220 0
15.1274 -5.2403 1.0133 0 220 0
15.1274 -5.2403 1.0358 0 220 0
15.1274 -5.2403 1.0583 0 220 0
15.1274 -5.2403 1.0808 0 220 0
15.1274 -5.2403 1.1033 0 220 0
15.1274 -5.2403 1.1259 0 220 0
15.1274 -5.2403 1.1484 0 220 0
15.1274 -5.2403 1.1709 0 220 0
15.1274 -5.2403 1.1934 0 220 0
15.1274 -5.2403 1.2159 0 220 0
15.1274 -5.2403 1.2384 0 220 0
15.1274 -5.2403 1.2610 0 220 0
15.1274 -5.2403 1.2835 0 220 0
15.1274 -5.2403 1.3060 0 220 0
15.1274 -5.2403 1.3285 0 220 0
15.1274 -5.2403 1.3510 0 220 0
15.1274 -5.2403 1.3735 0 220 0
15.1274 -5.2403 1.3960 0 220 0
15.1274 -5.2403 1.4186 0 220 0
15.1274 -5.2403 1.4411 0 220 0
15.1274 -5.2403 1.4636 0 220 0
15.1274 -5.2403 1.4861 0 220 0
15.1274 -5.2403 1.5086 0 220 0
15.1274 -5.2403 1.5311 0 220 0
15.1274 -5.2403 1.5536 0 220 0
15.1274 -5.2403 1.5762 0 220 0
15.1274 -5.2403 1.5987 0 220 0
15.1274 -5.2403 1.6212 0 220 0
15.1274 -5.2403 1.6437 0 220 0
15.1274 -5.2403 1.6662 0 220 0
15.1274 -5.2403 1.6887 0 220 0
15.1274 -5.2403 1.7113 0 220 0
15.1274 -5.2403 1.7338 0 220 0
15.1274 -5.2403 1.7563 0 220 0
15.1274 -5.2403 1.7788 0 220 0
15.1274 -5.2403 1.8013 0 220 0
15.1274 -5.2403 1.8238 0 220 0
15.1274 -5.2403 1.8463 0 220 0
15.1274 -5.2403 1.8689 0 220 0
15.1274 -5.2403 1.8914 0 220 0
15.1274 -5.2403 1.9139 0 220 0
15.1274 -5.2403 1.9364 0 220 0
15.1274 -5.2403 1.9589 0 220 0
15.1274 -5.2403 1.9814 0 220 0
15.1274 -5.2403 2.0040 0 220 0
15.1274 -5.2403 2.0265 0 220 0
15.1274 -5.2403 2.0490 0 220 0
15.1274 -5.2403 2.0715 0 220 0
15.1274 -5.2403 2.0940 0 220 0
15.1274 -5.2403 2.1165 0 220 0
15.1274 -5.2403 2.1390 0 220 0
15.1274 -5.2403 2.1616 0 220 0
15.1274 -5.2403 2.1841 0 220 0
15.1274 -5.2403 2.2066 0 220 0
15.1274 -5.2403 2.2291 0 220 0
15.1274 -5.2403 2.2516 0 220 0
15.1274 -5.2403 2.2741 0 220 0
15.1274 -5.2403 2.2966 0 220 0
15.1274 -5.2403 2.3192 0 220 0
15.1274 -5.2403 2.3417 0 220 0
15.1274 -5.2403 2.3642 0 220 0
15.1274 -5.2403 2.3867 0 220 0
15.1274 -5.2403 2.4092 0 220 0
15.1274 -5.2403 2.4317 0 220 0
15.1274 -5.2403 2.4543 0 220 0
15.1274 -5.2403 2.4768 0 220 0
15.1274 -5.2403 2.4993 0 220 0
15.1274 -5.2403 2.5218 0 220 0
15.1274 -5.2403 2.5443 0 220 0
15.1274 -5.2403 2.5668 0 220 0
17.6431 -5.7146 0.3378 0 220 0
17.6431 -5.7146 0.3603 0 220 0
17.6431 -5.7146 0.3829 0 220 0
17.6431 -5.7146 0.4054 0 220 0
17.6431 -5.7146 0.4279 0 220 0
17.6431 -5.7146 0.4504 0 220 0
17.6431 -5.7146 0.4729 0 220 0
17.6431 -5.7146 0.4954 0 220 0
17.6431 -5.7146 0.5180 0 220 0
17.6431 -5.7146 0.5405 0 220 0
17.6431 -5.7146 0.5630 0 220 0
17.6431 -5.7146 0.5855 0 220 0
17.6431 -5.7146 0.6080 0 220 0
17.6431 -5.7146 0.6305 0 220 0
17.6431 -5.7146 0.6530 0 220 0
17.6431 -5.7146 0.6756 0 220 0
17.6431 -5.7146 0.6981 0 220 0
17.6431 -5.7146 0.7206 0 220 0
17.6431 -5.7146 0.7431 0 220 0
17.6431 -5.7146 0.7656 0 220 0
17.6431 -5.7146 0.7881 0 220 0
17.6431 -5.7146 0.8106 0 220 0
17.6431 -5.7146 0.8332 0 220 0
17.6431 -5.7146 0.8557 0 220 0
17.6431 -5.7146 0.8782 0 220 0
17.6431 -5.7146 0.9007 0 220 0
17.6431 -5.7146 0.9232 0 220 0
17.6431 -5.7146 0.9457 0 220 0
17.6431 -5.7146 0.9683 0 220 0
17.6431 -5.7146 0.9908 0 220 0
17.6431 -5.7146 1.0133 0 220 0
17.6431 -5.7146 1.0358 0 220 0
17.6431 -5.7146 1.0583 0 220 0
17.6431 -5.7146 1.0808 0 220 0
17.6431 -5.7146 1.1033 0 220 0
17.6431 -5.7146 1.1259 0 220 0
17.6431 -5.7146 1.1484 0 220 0
17.6431 -5.7146 1.1709 0 220 0
17.6431 -5.7146 1.1934 0 220 0
17.6431 -5.7146 1.2159 0 220 0
17.6431 -5.7146 1.2384 0 220 0
17.6431 -5.7146 1.2610 0 220 0
17.6431 -5.7146 1.2835 0 220 0
17.6431 -5.7146 1.3060 0 220 0
17.6431 -5.7146 1.3285 0 220 0
17.6431 -5.7146 1.3510 0 220 0
17.6431 -5.7146 1.3735 0 220 0
17.6431 -5.7146 1.3960 0 220 0
17.6431 -5.7146 1.4186 0 220 0
17.6431 -5.7146 1.4411 0 220 0
17.6431 -5.7146 1.4636 0 220 0
17.6431 -5.7146 1.4861 0 220 0
17.6431 -5.7146 1.5086 0 220 0
17.6431 -5.7146 1.5311 0 220 0
17.6431 -5.7146 1.5536 0 220 0
17.6431 -5.7146 1.5762 0 220 0
17.6431 -5.7146 1.5987 0 220 0
17.6431 -5.7146 1.6212 0 220 0
17.6431 -5.7146 1.6437 0 220 0
17.6431 -5.7146 1.6662 0 220 0
17.6431 -5.7146 1.6887 0 220 0
17.6431 -5.7146 1.7113 0 220 0
17.6431 -5.7146 1.7338 0 220 0
17.6431 -5.7146 1.7563 0 220 0
17.6431 -5.7146 1.7788 0 220 0
17.6431 -5.7146 1.8013 0 220 0
17.6431 -5.7146 1.8238 0 220 0
17.6431 -5.7146 1.8463 0 220 0
17.6431 -5.7146 1.8689 0 220 0
17.6431 -5.7146 1.8914 0 220 0
17.6431 -5.7146 1.9139 0 220 0
17.6431 -5.7146 1.9364 0 220 0
17.6431 -5.7146 1.9589 0 220 0
17.6431 -5.7146 1.9814 0 220 0
17.6431 -5.7146 2.0040 0 220 0
17.6431 -5.7146 2.0265 0 220 0
17.6431 -5.7146 2.0490 0 220 0
17.6431 -5.7146 2.0715 0 220 0
17.6431 -5.7146 2.0940 0 220 0
17.6431 -5.7146 2.1165 0 220 0
17.6431 -5.7146 2.1390 0 220 0
17.6431 -5.7146 2.1616 0 220 0
17.6431 -5.7146 2.1841 0 220 0
17.6431 -5.7146 2.2066 0 220 0
17.6431 -5.7146 2.2291 0 220 0
17.6431 -5.7146 2.2516 0 220 0
17.6431 -5.7146 2.2741 0 220 0
17.6431 -5.7146 2.2966 0 220 0
17.6431 -5.7146 2.3192 0 220 0
17.6431 -5.7146 2.3417 0 220 0
17.6431 -5.7146 2.3642 0 220 0
17.6431 -5.7146 2.3867 0 220 0
17.6431 -5.7146 2.4092 0 220 0
17.6431 -5.7146 2.4317 0 220 0
17.6431 -5.7146 2.4543 0 220 0
17.6431 -5.7146 2.4768 0 220 0
17.6431 -5.7146 2.4993 0 220 0
17.6431 -5.7146 2.5218 0 220 0
17.6431 -5.7146 2.5443 0 220 0
17.6431 -5.7146 2.5668 0 220 0
18.6874 -0.1752 0.3378 0 220 0
18.6874 -0.1752 0.3603 0 220 0
18.6874 -0.1752 0.3829 0 220 0
18.6874 -0.1752 0.4054 0 220 0
18.6874 -0.1752 0.4279 0 220 0
18.6874 -0.1752 0.4504 0 220 0
18.6874 -0.1752 0.4729 0 220 0
18.6874 -0.1752 0.4954 0 220 0
18.6874 -0.1752 0.5180 0 220 0
18.6874 -0.1752 0.5405 0 220 0
18.6874 -0.1752 0.5630 0 220 0
18.6874 -0.1752 0.5855 0 220 0
18.6874 -0.1752 0.6080 0 220 0
18.6874 -0.1752 0.6305 0 220 0
18.6874 -0.1752 0.6530 0 220 0
18.6874 -0.1752 0.6756 0 220 0
18.6874 -0.1752 0.6981 0 220 0
18.6874 -0.1752 0.7206 0 220 0
18.6874 -0.1752 0.7431 0 220 0
18.6874 -0.1752 0.7656 0 220 0
18.6874 -0.1752 0.7881 0 220 0
18.6874 -0.1752 0.8106 0 220 0
18.6874 -0.1752 0.8332 0 220 0
18.6874 -0.1752 0.8557 0 220 0
18.6874 -0.1752 0.8782 0 220 0
18.6874 -0.1752 0.9007 0 220 0
18.6874 -0.1752 0.9232 0 220 0
18.6874 -0.1752 0.9457 0 220 0
18.6874 -0.1752 0.9683 0 220 0
18.6874 -0.1752 0.9908 0 220 0
18.6874 -0.1752 1.0133 0 220 0
18.6874 -0.1752 1.0358 0 220 0
18.6874 -0.1752 1.0583 0 220 0
18.6874 -0.1752 1.0808 0 220 0
18.6874 -0.1752 1.1033 0 220 0
18.6874 -0.1752 1.1259 0 220 0
18.6874 -0.1752 1.1484 0 220 0
18.6874 -0.1752 1.1709 0 220 0
18.6874 -0.1752 1.1934 0 220 0
18.6874 -0.1752 1.2159 0 220 0
18.6874 -0.1752 1.2384 0 220 0
18.6874 -0.1752 1.2610 0 220 0
18.6874 -0.1752 1.2835 0 220 0
18.6874 -0.1752 1.3060 0 220 0
18.6874 -0.1752 1.3285 0 220 0
18.6874 -0.1752 1.3510 0 220 0
18.6874 -0.1752 1.3735 0 220 0
18.6874 -0.1752 1.3960 0 220 0
18.6874 -0.1752 1.4186 0 220 0
18.6874 -0.1752 1.4411 0 220 0
18.6874 -0.1752 1.4636 0 220 0
18.6874 -0.1752 1.4861 0 220 0
18.6874 -0.1752 1.5086 0 220 0
18.6874 -0.1752 1.5311 0 220 0
18.6874 -0.1752 1.5536 0 220 0
18.6874 -0.1752 1.5762 0 220 0
18.6874 -0.1752 1.5987 0 220 0
18.6874 -0.1752 1.6212 0 220 0
18.6874 -0.1752 1.6437 0 220 0
18.6874 -0.1752 1.6662 0 220 0
18.6874 -0.1752 1.6887 0 220 0
18.6874 -0.1752 1.7113 0 220 0
18.6874 -0.1752 1.7338 0 220 0
18.6874 -0.1752 1.7563 0 220 0
18.6874 -0.1752 1.7788 0 220 0
18.6874 -0.1752 1.8013 0 220 0
18.6874 -0.1752 1.8238 0 220 0
18.6874 -0.1752 1.8463 0 220 0
18.6874 -0.1752 1.8689 0 220 0
18.6874 -0.1752 1.8914 0 220 0
18.6874 -0.1752 1.9139 0 220 0
18.6874 -0.1752 1.9364 0 220 0
18.6874 -0.1752 1.9589 0 220 0
18.6874 -0.1752 1.9814 0 220 0
18.6874 -0.1752 2.0040 0 220 0
18.6874 -0.1752 2.0265 0 220 0
18.6874 -0.1752 2.0490 0 220 0
18.6874 -0.1752 2.0715 0 220 0
18.6874 -0.1752 2.0940 0 220 0
18.6874 -0.1752 2.1165 0 220 0
18.6874 -0.1752 2.1390 0 220 0
18.6874 -0.1752 2.1616 0 220 0
18.6874 -0.1752 2.1841 0 220 0
18.6874 -0.1752 2.2066 0 220 0
18.6874 -0.1752 2.2291 0 220 0
18.6874 -0.1752 2.2516 0 220 0
18.6874 -0.1752 2.2741 0 220 0
18.6874 -0.1752 2.2966 0 220 0
18.6874 -0.1752 2.3192 0 220 0
18.6874 -0.1752 2.3417 0 220 0
18.6874 -0.1752 2.3642 0 220 0
18.6874 -0.1752 2.3867 0 220 0
18.6874 -0.1752 2.4092 0 220 0
18.6874 -0.1752 2.4317 0 220 0
18.6874 -0.1752 2.4543 0 220 0
18.6874 -0.1752 2.4768 0 220 0
18.6874 -0.1752 2.4993 0 220 0
18.6874 -0.1752 2.5218 0 220 0
18.6874 -0.1752 2.5443 0 220 0
18.6874 -0.1752 2.5668 0 220 0
15.7246 0.2712 0.0770 100 150 255
15.7195 0.2133 0.0770 100 150 255
15.7144 0.1554 0.0770 100 150 255
15.7093 0.0975 0.0770 100 150 255
15.7041 0.0396 0.0770 100 150 255
15.6990 -0.0183 0.0770 100 150 255
15.6939 -0.0762 0.0770 100 150 255
15.6888 -0.1341 0.0770 100 150 255
15.6837 -0.1920 0.0770 100 150 255
15.6786 -0.2498 0.0770 100 150 255
15.6735 -0.3077 0.0770 100 150 255
15.6684 -0.3656 0.0770 100 150 255
15.6633 -0.4235 0.0770 100 150 255
15.6582 -0.4814 0.0770 100 150 255
15.6531 -0.5393 0.0770 100 150 255
15.6480 -0.5972 0.0770 100 150 255
15.6429 -0.6551 0.0770 100 150 255
15.6378 -0.7130 0.0770 100 150 255
15.6327 -0.7709 0.0770 100 150 255
15.6275 -0.8288 0.0770 100 150 255
15.6224 -0.8867 0.0770 100 150 255
15.6173 -0.9446 0.0770 100 150 255
15.6122 -1.0025 0.0770 100 150 255
15.6071 -1.0603 0.0770 100 150 255
15.6020 -1.1182 0.0770 100 150 255
15.5969 -1.1761 0.0770 100 150 255
15.5918 -1.2340 0.0770 100 150 255
15.5867 -1.2919 0.0770 100 150 255
15.5816 -1.3498 0.0770 100 150 255
15.5765 -1.4077 0.0770 100 150 255
15.5714 -1.4656 0.0770 100 150 255
15.5663 -1.5235 0.0770 100 150 255
15.5612 -1.5814 0.0770 100 150 255
15.5561 -1.6393 0.0770 100 150 255
15.5509 -1.6972 0.0770 100 150 255
15.5458 -1.7551 0.0770 100 150 255
15.5407 -1.8130 0.0770 100 150 255
15.5356 -1.8709 0.0770 100 150 255
15.5305 -1.9287 0.0770 100 150 255
15.5254 -1.9866 0.0770 100 150 255
15.5203 -2.0445 0.0770 100 150 255
15.5152 -2.1024 0.0770 100 150 255
15.5101 -2.1603 0.0770 100 150 255
15.5050 -2.2182 0.0770 100 150 255
15.4999 -2.2761 0.0770 100 150 255
15.4948 -2.3340 0.0770 100 150 255
15.4897 -2.3919 0.0770 100 150 255
15.4846 -2.4498 0.0770 100 150 255
15.4795 -2.5077 0.0770 100 150 255
15.4743 -2.5656 0.0770 100 150 255
15.4692 -2.6235 0.0770 100 150 255
15.4641 -2.6814 0.0770 100 150 255
15.4590 -2.7392 0.0770 100 150 255
15.4539 -2.7971 0.0770 100 150 255
15.4488 -2.8550 0.0770 100 150 255
15.4437 -2.9129 0.0770 100 150 255
15.4386 -2.9708 0.0770 100 150 255
15.4335 -3.0287 0.0770 100 150 255
15.4284 -3.0866 0.0770 100 150 255
15.4233 -3.1445 0.0770 100 150 255
15.4182 -3.2024 0.0770 100 150 255
15.4131 -3.2603 0.0770 100 150 255
15.4080 -3.3182 0.0770 100 150 255
15.4029 -3.3761 0.0770 100 150 255
15.3977 -3.4340 0.0770 100 150 255
15.3926 -3.4919 0.0770 100 150 255
15.3875 -3.5497 0.0770 100 150 255
15.3824 -3.6076 0.0770 100 150 255
15.3773 -3.6655 0.0770 100 150 255
15.3722 -3.7234 0.0770 100 150 255
15.3671 -3.7813 0.0770 100 150 255
15.3620 -3.8392 0.0770 100 150 255
15.3569 -3.8971 0.0770 100 150 255
15.3518 -3.9550 0.0770 100 150 255
15.3467 -4.0129 0.0770 100 150 255
15.3416 -4.0708 0.0770 100 150 255
15.3365 -4.1287 0.0770 100 150 255
15.3314 -4.1866 0.0770 100 150 255
15.3263 -4.2445 0.0770 100 150 255
15.3212 -4.3024 0.0770 100 150 255
15.3160 -4.3603 0.0770 100 150 255
15.3109 -4.4181 0.0770 100 150 255
15.3058 -4.4760 0.0770 100 150 255
15.3007 -4.5339 0.0770 100 150 255
15.2956 -4.5918 0.0770 100 150 255
15.2905 -4.6497 0.0770 100 150 255
15.2854 -4.7076 0.0770 100 150 255
15.2803 -4.7655 0.0770 100 150 255
15.2752 -4.8234 0.0770 100 150 255
15.2701 -4.8813 0.0770 100 150 255
15.2650 -4.9392 0.0770 100 150 255
15.2599 -4.9971 0.0770 100 150 255
15.2548 -5.0550 0.0770 100 150 255
15.2497 -5.1129 0.0770 100 150 255
15.2446 -5.1708 0.0770 100 150 255
15.2394 -5.2286 0.0770 100 150 255
15.2343 -5.2865 0.0770 100 150 255
15.2292 -5.3444 0.0770 100 150 255
15.2241 -5.4023 0.0770 100 150 255
15.2190 -5.4602 0.0770 100 150 255
15.2190 -5.4602 0.0770 100 150 255
15.2461 -5.4626 0.0770 100 150 255
15.2732 -5.4650 0.0770 100 150 255
15.3003 -5.4674 0.0770 100 150 255
15.3274 -5.4698 0.0770 100 150 255
15.3544 -5.4722 0.0770 100 150 255
15.3815 -5.4746 0.0770 100 150 255
15.4086 -5.4769 0.0770 100 150 255
15.4357 -5.4793 0.0770 100 150 255
15.4628 -5.4817 0.0770 100 150 255
15.4899 -5.4841 0.0770 100 150 255
15.5170 -5.4865 0.0770 100 150 255
15.5441 -5.4889 0.0770 100 150 255
15.5711 -5.4913 0.0770 100 150 255
15.5982 -5.4937 0.0770 100 150 255
15.6253 -5.4961 0.0770 100 150 255
15.6524 -5.4984 0.0770 100 150 255
15.6795 -5.5008 0.0770 100 150 255
15.7066 -5.5032 0.0770 100 150 255
15.7337 -5.5056 0.0770 100 150 255
15.7607 -5.5080 0.0770 100 150 255
15.7878 -5.5104 0.0770 100 150 255
15.8149 -5.5128 0.0770 100 150 255
15.8420 -5.5152 0.0770 100 150 255
15.8691 -5.5176 0.0770 100 150 255
15.8962 -5.5200 0.0770 100 150 255
15.9233 -5.5223 0.0770 100 150 255
15.9503 -5.5247 0.0770 100 150 255
15.9774 -5.5271 0.0770 100 150 255
16.0045 -5.5295 0.0770 100 150 255
16.0316 -5.5319 0.0770 100 150 255
16.0587 -5.5343 0.0770 100 150 255
16.0858 -5.5367 0.0770 100 150 255
16.1129 -5.5391 0.0770 100 150 255
16.1399 -5.5415 0.0770 100 150 255
16.1670 -5.5438 0.0770 100 150 255
16.1941 -5.5462 0.0770 100 150 255
16.2212 -5.5486 0.0770 100 150 255
16.2483 -5.5510 0.0770 100 150 255
16.2754 -5.5534 0.0770 100 150 255
16.3025 -5.5558 0.0770 100 150 255
16.3295 -5.5582 0.0770 100 150 255
16.3566 -5.5606 0.0770 100 150 255
16.3837 -5.5630 0.0770 100 150 255
16.4108 -5.5653 0.0770 100 150 255
16.4379 -5.5677 0.0770 100 150 255
16.4650 -5.5701 0.0770 100 150 255
16.4921 -5.5725 0.0770 100 150 255
16.5191 -5.5749 0.0770 100 150 255
16.5462 -5.5773 0.0770 100 150 255
16.5733 -5.5797 0.0770 100 150 255
16.6004 -5.5821 0.0770 100 150 255
16.6275 -5.5845 0.0770 100 150 255
16.6546 -5.5868 0.0770 100 150 255
16.6817 -5.5892 0.0770 100 150 255
16.7087 -5.5916 0.0770 100 150 255
16.7358 -5.5940 0.0770 100 150 255
16.7629 -5.5964 0.0770 100 150 255
16.7900 -5.5988 0.0770 100 150 255
16.8171 -5.6012 0.0770 100 150 255
16.8442 -5.6036 0.0770 100 150 255
16.8713 -5.6060 0.0770 100 150 255
16.8983 -5.6083 0.0770 100 150 255
16.9254 -5.6107 0.0770 100 150 255
16.9525 -5.6131 0.0770 100 150 255
16.9796 -5.6155 0.0770 100 150 255
17.0067 -5.6179 0.0770 100 150 255
17.0338 -5.6203 0.0770 100 150 255
17.0609 -5.6227 0.0770 100 150 255
17.0879 -5.6251 0.0770 100 150 255
17.1150 -5.6275 0.0770 100 150 255
17.1421 -5.6299 0.0770 100 150 255
17.1692 -5.6322 0.0770 100 150 255
17.1963 -5.6346 0.0770 100 150 255
17.2234 -5.6370 0.0770 100 150 255
17.2505 -5.6394 0.0770 100 150 255
17.2775 -5.6418 0.0770 100 150 255
17.3046 -5.6442 0.0770 100 150 255
17.3317 -5.6466 0.0770 100 150 255
17.3588 -5.6490 0.0770 100 150 255
17.3859 -5.6514 0.0770 100 150 255
17.4130 -5.6537 0.0770 100 150 255
17.4401 -5.6561 0.0770 100 150 255
17.4671 -5.6585 0.0770 100 150 255
17.4942 -5.6609 0.0770 100 150 255
17.5213 -5.6633 0.0770 100 150 255
17.5484 -5.6657 0.0770 100 150 255
17.5755 -5.6681 0.0770 100 150 255
17.6026 -5.6705 0.0770 100 150 255
17.6297 -5.6729 0.0770 100 150 255
17.6567 -5.6752 0.0770 100 150 255
17.6838 -5.6776 0.0770 100 150 255
17.7109 -5.6800 0.0770 100 150 255
17.7380 -5.6824 0.0770 100 150 255
17.7651 -5.6848 0.0770 100 150 255
17.7922 -5.6872 0.0770 100 150 255
17.8193 -5.6896 0.0770 100 150 255
17.8463 -5.6920 0.0770 100 150 255
17.8734 -5.6944 0.0770 100 150 255
17.9005 -5.6967 0.0770 100 150 255
17.9005 -5.6967 0.0770 100 150 255
17.9056 -5.6389 0.0770 100 150 255
17.9107 -5.5810 0.0770 100 150 255
17.9158 -5.5231 0.0770 100 150 255
17.9209 -5.4652 0.0770 100 150 255
17.9261 -5.4073 0.0770 100 150 255
17.9312 -5.3494 0.0770 100 150 255
17.9363 -5.2915 0.0770 100 150 255
17.9414 -5.2336 0.0770 100 150 255
17.9465 -5.1757 0.0770 100 150 255
17.9516 -5.1178 0.0770 100 150 255
17.9567 -5.0599 0.0770 100 150 255
17.9618 -5.0020 0.0770 100 150 255
17.9669 -4.9441 0.0770 100 150 255
17.9720 -4.8862 0.0770 100 150 255
17.9771 -4.8284 0.0770 100 150 255
17.9822 -4.7705 0.0770 100 150 255
17.9873 -4.7126 0.0770 100 150 255
17.9924 -4.6547 0.0770 100 150 255
17.9975 -4.5968 0.0770 100 150 255
18.0026 -4.5389 0.0770 100 150 255
18.0078 -4.4810 0.0770 100 150 255
18.0129 -4.4231 0.0770 100 150 255
18.0180 -4.3652 0.0770 100 150 255
18.0231 -4.3073 0.0770 100 150 255
18.0282 -4.2494 0.0770 100 150 255
18.0333 -4.1915 0.0770 100 150 255
18.0384 -4.1336 0.0770 100 150 255
18.0435 -4.0757 0.0770 100 150 255
18.0486 -4.0178 0.0770 100 150 255
18.0537 -3.9600 0.0770 100 150 255
18.0588 -3.9021 0.0770 100 150 255
18.0639 -3.8442 0.0770 100 150 255
18.0690 -3.7863 0.0770 100 150 255
18.0741 -3.7284 0.0770 100 150 255
18.0792 -3.6705 0.0770 100 150 255
18.0844 -3.6126 0.0770 100 150 255
18.0895 -3.5547 0.0770 100 150 255
18.0946 -3.4968 0.0770 100 150 255
18.0997 -3.4389 0.0770 100 150 255
18.1048 -3.3810 0.0770 100 150 255
18.1099 -3.3231 0.0770 100 150 255
18.1150 -3.2652 0.0770 100 150 255
18.1201 -3.2073 0.0770 100 150 255
18.1252 -3.1495 0.0770 100 150 255
18.1303 -3.0916 0.0770 100 150 255
18.1354 -3.0337 0.0770 100 150 255
18.1405 -2.9758 0.0770 100 150 255
18.1456 -2.9179 0.0770 100 150 255
18.1507 -2.8600 0.0770 100 150 255
18.1558 -2.8021 0.0770 100 150 255
18.1610 -2.7442 0.0770 100 150 255
18.1661 -2.6863 0.0770 100 150 255
18.1712 -2.6284 0.0770 100 150 255
18.1763 -2.5705 0.0770 100 150 255
18.1814 -2.5126 0.0770 100 150 255
18.1865 -2.4547 0.0770 100 150 255
18.1916 -2.3968 0.0770 100 150 255
18.1967 -2.3389 0.0770 100 150 255
18.2018 -2.2811 0.0770 100 150 255
18.2069 -2.2232 0.0770 100 150 255
18.2120 -2.1653 0.0770 100 150 255
18.2171 -2.1074 0.0770 100 150 255
18.2222 -2.0495 0.0770 100 150 255
18.2273 -1.9916 0.0770 100 150 255
18.2324 -1.9337 0.0770 100 150 255
18.2376 -1.8758 0.0770 100 150 255
18.2427 -1.8179 0.0770 100 150 255
18.2478 -1.7600 0.0770 100 150 255
18.2529 -1.7021 0.0770 100 150 255
18.2580 -1.6442 0.0770 100 150 255
18.2631 -1.5863 0.0770 100 150 255
18.2682 -1.5284 0.0770 100 150 255
18.2733 -1.4706 0.0770 100 150 255
18.2784 -1.4127 0.0770 100 150 255
18.2835 -1.3548 0.0770 100 150 255
18.2886 -1.2969 0.0770 100 150 255
18.2937 -1.2390 0.0770 100 150 255
18.2988 -1.1811 0.0770 100 150 255
18.3039 -1.1232 0.0770 100 150 255
18.3090 -1.0653 0.0770 100 150 255
18.3141 -1.0074 0.0770 100 150 255
18.3193 -0.9495 0.0770 100 150 255
18.3244 -0.8916 0.0770 100 150 255
18.3295 -0.8337 0.0770 100 150 255
18.3346 -0.7758 0.0770 100 150 255
18.3397 -0.7179 0.0770 100 150 255
18.3448 -0.6600 0.0770 100 150 255
18.3499 -0.6022 0.0770 100 150 255
18.3550 -0.5443 0.0770 100 150 255
18.3601 -0.4864 0.0770 100 150 255
18.3652 -0.4285 0.0770 100 150 255
18.3703 -0.3706 0.0770 100 150 255
18.3754 -0.3127 0.0770 100 150 255
18.3805 -0.2548 0.0770 100 150 255
18.3856 -0.1969 0.0770 100 150 255
18.3907 -0.1390 0.0770 100 150 255
18.3959 -0.0811 0.0770 100 150 255
18.4010 -0.0232 0.0770 100 150 255
18.4061 0.0347 0.0770 100 150 255
18.4061 0.0347 0.0770 100 150 255
18.3790 0.0371 0.0770 100 150 255
18.3519 0.0394 0.0770 100 150 255
18.3248 0.0418 0.0770 100 150 255
18.2977 0.0442 0.0770 100 150 255
18.2706 0.0466 0.0770 100 150 255
18.2436 0.0490 0.0770 100 150 255
18.2165 0.0514 0.0770 100 150 255
18.1894 0.0538 0.0770 100 150 255
18.1623 0.0562 0.0770 100 150 255
18.1352 0.0586 0.0770 100 150 255
18.1081 0.0609 0.0770 100 150 255
18.0810 0.0633 0.0770 100 150 255
18.0540 0.0657 0.0770 100 150 255
18.0269 0.0681 0.0770 100 150 255
17.9998 0.0705 0.0770 100 150 255
17.9727 0.0729 0.0770 100 150 255
17.9456 0.0753 0.0770 100 150 255
17.9185 0.0777 0.0770 100 150 255
17.8914 0.0801 0.0770 100 150 255
17.8644 0.0825 0.0770 100 150 255
17.8373 0.0848 0.0770 100 150 255
17.8102 0.0872 0.0770 100 150 255
17.7831 0.0896 0.0770 100 150 255
17.7560 0.0920 0.0770 100 150 255
17.7289 0.0944 0.0770 100 150 255
17.7018 0.0968 0.0770 100 150 255
17.6748 0.0992 0.0770 100 150 255
17.6477 0.1016 0.0770 100 150 255
17.6206 0.1040 0.0770 100 150 255
17.5935 0.1063 0.0770 100 150 255
17.5664 0.1087 0.0770 100 150 255
17.5393 0.1111 0.0770 100 150 255
17.5122 0.1135 0.0770 100 150 255
17.4851 0.1159 0.0770 100 150 255
17.4581 0.1183 0.0770 100 150 255
17.4310 0.1207 0.0770 100 150 255
17.4039 0.1231 0.0770 100 150 255
17.3768 0.1255 0.0770 100 150 255
17.3497 0.1278 0.0770 100 150 255
17.3226 0.1302 0.0770 100 150 255
17.2955 0.1326 0.0770 100 150 255
17.2685 0.1350 0.0770 100 150 255
17.2414 0.1374 0.0770 100 150 255
17.2143 0.1398 0.0770 100 150 255
17.1872 0.1422 0.0770 100 150 255
17.1601 0.1446 0.0770 100 150 255
17.1330 0.1470 0.0770 100 150 255
17.1059 0.1493 0.0770 100 150 255
17.0789 0.1517 0.0770 100 150 255
17.0518 0.1541 0.0770 100 150 255
17.0247 0.1565 0.0770 100 150 255
16.9976 0.1589 0.0770 100 150 255
16.9705 0.1613 0.0770 100 150 255
16.9434 0.1637 0.0770 100 150 255
16.9163 0.1661 0.0770 100 150 255
16.8893 0.1685 0.0770 100 150 255
16.8622 0.1708 0.0770 100 150 255
16.8351 0.1732 0.0770 100 150 255
16.8080 0.1756 0.0770 100 150 255
16.7809 0.1780 0.0770 100 150 255
16.7538 0.1804 0.0770 100 150 255
16.7267 0.1828 0.0770 100 150 255
16.6997 0.1852 0.0770 100 150 255
16.6726 0.1876 0.0770 100 150 255
16.6455 0.1900 0.0770 100 150 255
16.6184 0.1924 0.0770 100 150 255
16.5913 0.1947 0.0770 100 150 255
16.5642 0.1971 0.0770 100 150 255
16.5371 0.1995 0.0770 100 150 255
16.5101 0.2019 0.0770 100 150 255
16.4830 0.2043 0.0770 100 150 255
16.4559 0.2067 0.0770 100 150 255
16.4288 0.2091 0.0770 100 150 255
16.4017 0.2115 0.0770 100 150 255
16.3746 0.2139 0.0770 100 150 255
16.3475 0.2162 0.0770 100 150 255
16.3205 0.2186 0.0770 100 150 255
16.2934 0.2210 0.0770 100 150 255
16.2663 0.2234 0.0770 100 150 255
16.2392 0.2258 0.0770 100 150 255
16.2121 0.2282 0.0770 100 150 255
16.1850 0.2306 0.0770 100 150 255
16.1579 0.2330 0.0770 100 150 255
16.1309 0.2354 0.0770 100 150 255
16.1038 0.2377 0.0770 100 150 255
16.0767 0.2401 0.0770 100 150 255
16.0496 0.2425 0.0770 100 150 255
16.0225 0.2449 0.0770 100 150 255
15.9954 0.2473 0.0770 100 150 255
15.9683 0.2497 0.0770 100 150 255
15.9413 0.2521 0.0770 100 150 255
15.9142 0.2545 0.0770 100 150 255
15.8871 0.2569 0.0770 100 150 255
15.8600 0.2592 0.0770 100 150 255
15.8329 0.2616 0.0770 100 150 255
15.8058 0.2640 0.0770 100 150 255
15.7787 0.2664 0.0770 100 150 255
15.7517 0.2688 0.0770 100 150 255
15.7246 0.2712 0.0770 100 150 255
15.7246 0.2712 2.3159 100 150 255
15.7195 0.2133 2.3159 100 150 255
15.7144 0.1554 2.3159 100 150 255
15.7093 0.0975 2.3159 100 150 255
15.7041 0.0396 2.3159 100 150 255
15.6990 -0.0183 2.3159 100 150 255
15.6939 -0.0762 2.3159 100 150 255
15.6888 -0.1341 2.3159 100 150 255
15.6837 -0.1920 2.3159 100 150 255
15.6786 -0.2498 2.3159 100 150 255
15.6735 -0.3077 2.3159 100 150 255
15.6684 -0.3656 2.3159 100 150 255
15.6633 -0.4235 2.3159 100 150 255
15.6582 -0.4814 2.3159 100 150 255
15.6531 -0.5393 2.3159 100 150 255
15.6480 -0.5972 2.3159 100 150 255
15.6429 -0.6551 2.3159 100 150 255
15.6378 -0.7130 2.3159 100 150 255
15.6327 -0.7709 2.3159 100 150 255
15.6275 -0.8288 2.3159 100 150 255
15.6224 -0.8867 2.3159 100 150 255
15.6173 -0.9446 2.3159 100 150 255
15.6122 -1.0025 2.3159 100 150 255
15.6071 -1.0603 2.3159 100 150 255
15.6020 -1.1182 2.3159 100 150 255
15.5969 -1.1761 2.3159 100 150 255
15.5918 -1.2340 2.3159 100 150 255
15.5867 -1.2919 2.3159 100 150 255
15.5816 -1.3498 2.3159 100 150 255
15.5765 -1.4077 2.3159 100 150 255
15.5714 -1.4656 2.3159 100 150 255
15.5663 -1.5235 2.3159 100 150 255
15.5612 -1.5814 2.3159 100 150 255
15.5561 -1.6393 2.3159 100 150 255
15.5509 -1.6972 2.3159 100 150 255
15.5458 -1.7551 2.3159 100 150 255
15.5407 -1.8130 2.3159 100 150 255
15.5356 -1.8709 2.3159 100 150 255
15.5305 -1.9287 2.3159 100 150 255
15.5254 -1.9866 2.3159 100 150 255
15.5203 -2.0445 2.3159 100 150 255
15.5152 -2.1024 2.3159 100 150 255
15.5101 -2.1603 2.3159 100 150 255
15.5050 -2.2182 2.3159 100 150 255
15.4999 -2.2761 2.3159 100 150 255
15.4948 -2.3340 2.3159 100 150 255
15.4897 -2.3919 2.3159 100 150 255
15.4846 -2.4498 2.3159 100 150 255
15.4795 -2.5077 2.3159 100 150 255
15.4743 -2.5656 2.3159 100 150 255
15.4692 -2.6235 2.3159 100 150 255
15.4641 -2.6814 2.3159 100 150 255
15.4590 -2.7392 2.3159 100 150 255
15.4539 -2.7971 2.3159 100 150 255
15.4488 -2.8550 2.3159 100 150 255
15.4437 -2.9129 2.3159 100 150 255
15.4386 -2.9708 2.3159 100 150 255
15.4335 -3.0287 2.3159 100 150 255
15.4284 -3.0866 2.3159 100 150 255
15.4233 -3.1445 2.3159 100 150 255
15.4182 -3.2024 2.3159 100 150 255
15.4131 -3.2603 2.3159 100 150 255
15.4080 -3.3182 2.3159 100 150 255
15.4029 -3.3761 2.3159 100 150 255
15.3977 -3.4340 2.3159 100 150 255
15.3926 -3.4919 2.3159 100 150 255
15.3875 -3.5497 2.3159 100 150 255
15.3824 -3.6076 2.3159 100 150 255
15.3773 -3.6655 2.3159 100 150 255
15.3722 -3.7234 2.3159 100 150 255
15.3671 -3.7813 2.3159 100 150 255
15.3620 -3.8392 2.3159 100 150 255
15.3569 -3.8971 2.3159 100 150 255
15.3518 -3.9550 2.3159 100 150 255
15.3467 -4.0129 2.3159 100 150 255
15.3416 -4.0708 2.3159 100 150 255
15.3365 -4.1287 2.3159 100 150 255
15.3314 -4.1866 2.3159 100 150 255
15.3263 -4.2445 2.3159 100 150 255
15.3212 -4.3024 2.3159 100 150 255
15.3160 -4.3603 2.3159 100 150 255
15.3109 -4.4181 2.3159 100 150 255
15.3058 -4.4760 2.3159 100 150 255
15.3007 -4.5339 2.3159 100 150 255
15.2956 -4.5918 2.3159 100 150 255
15.2905 -4.6497 2.3159 100 150 255
15.2854 -4.7076 2.3159 100 150 255
15.2803 -4.7655 2.3159 100 150 255
15.2752 -4.8234 2.3159 100 150 255
15.2701 -4.8813 2.3159 100 150 255
15.2650 -4.9392 2.3159 100 150 255
15.2599 -4.9971 2.3159 100 150 255
15.2548 -5.0550 2.3159 100 150 255
15.2497 -5.1129 2.3159 100 150 255
15.2446 -5.1708 2.3159 100 150 255
15.2394 -5.2286 2.3159 100 150 255
15.2343 -5.2865 2.3159 100 150 255
15.2292 -5.3444 2.3159 100 150 255
15.2241 -5.4023 2.3159 100 150 255
15.2190 -5.4602 2.3159 100 150 255
15.2190 -5.4602 2.3159 100 150 255
15.2461 -5.4626 2.3159 100 150 255
15.2732 -5.4650 2.3159 100 150 255
15.3003 -5.4674 2.3159 100 150 255
15.3274 -5.4698 2.3159 100 150 255
15.3544 -5.4722 2.3159 100 150 255
15.3815 -5.4746 2.3159 100 150 255
15.4086 -5.4769 2.3159 100 150 255
15.4357 -5.4793 2.3159 100 150 255
15.4628 -5.4817 2.3159 100 150 255
15.4899 -5.4841 2.3159 100 150 255
15.5170 -5.4865 2.3159 100 150 255
15.5441 -5.4889 2.3159 100 150 255
15.5711 -5.4913 2.3159 100 150 255
15.5982 -5.4937 2.3159 100 150 255
15.6253 -5.4961 2.3159 100 150 255
15.6524 -5.4984 2.3159 100 150 255
15.6795 -5.5008 2.3159 100 150 255
15.7066 -5.5032 2.3159 100 150 255
15.7337 -5.5056 2.3159 100 150 255
15.7607 -5.5080 2.3159 100 150 255
15.7878 -5.5104 2.3159 100 150 255
15.8149 -5.5128 2.3159 100 150 255
15.8420 -5.5152 2.3159 100 150 255
15.8691 -5.5176 2.3159 100 150 255
15.8962 -5.5200 2.3159 100 150 255
15.9233 -5.5223 2.3159 100 150 255
15.9503 -5.5247 2.3159 100 150 255
15.9774 -5.5271 2.3159 100 150 255
16.0045 -5.5295 2.3159 100 150 255
16.0316 -5.5319 2.3159 100 150 255
16.0587 -5.5343 2.3159 100 150 255
16.0858 -5.5367 2.3159 100 150 255
16.1129 -5.5391 2.3159 100 150 255
16.1399 -5.5415 2.3159 100 150 255
16.1670 -5.5438 2.3159 100 150 255
16.1941 -5.5462 2.3159 100 150 255
16.2212 -5.5486 2.3159 100 150 255
16.2483 -5.5510 2.3159 100 150 255
16.2754 -5.5534 2.3159 100 150 255
16.3025 -5.5558 2.3159 100 150 255
16.3295 -5.5582 2.3159 100 150 255
16.3566 -5.5606 2.3159 100 150 255
16.3837 -5.5630 2.3159 100 150 255
16.4108 -5.5653 2.3159 100 150 255
16.4379 -5.5677 2.3159 100 150 255
16.4650 -5.5701 2.3159 100 150 255
16.4921 -5.5725 2.3159 100 150 255
16.5191 -5.5749 2.3159 100 150 255
16.5462 -5.5773 2.3159 100 150 255
16.5733 -5.5797 2.3159 100 150 255
16.6004 -5.5821 2.3159 100 150 255
16.6275 -5.5845 2.3159 100 150 255
16.6546 -5.5868 2.3159 100 150 255
16.6817 -5.5892 2.3159 100 150 255
16.7087 -5.5916 2.3159 100 150 255
16.7358 -5.5940 2.3159 100 150 255
16.7629 -5.5964 2.3159 100 150 255
16.7900 -5.5988 2.3159 100 150 255
16.8171 -5.6012 2.3159 100 150 255
16.8442 -5.6036 2.3159 100 150 255
16.8713 -5.6060 2.3159 100 150 255
16.8983 -5.6083 2.3159 100 150 255
16.9254 -5.6107 2.3159 100 150 255
16.9525 -5.6131 2.3159 100 150 255
16.9796 -5.6155 2.3159 100 150 255
17.0067 -5.6179 2.3159 100 150 255
17.0338 -5.6203 2.3159 100 150 255
17.0609 -5.6227 2.3159 100 150 255
17.0879 -5.6251 2.3159 100 150 255
17.1150 -5.6275 2.3159 100 150 255
17.1421 -5.6299 2.3159 100 150 255
17.1692 -5.6322 2.3159 100 150 255
17.1963 -5.6346 2.3159 100 150 255
17.2234 -5.6370 2.3159 100 150 255
17.2505 -5.6394 2.3159 100 150 255
17.2775 -5.6418 2.3159 100 150 255
17.3046 -5.6442 2.3159 100 150 255
17.3317 -5.6466 2.3159 100 150 255
17.3588 -5.6490 2.3159 100 150 255
17.3859 -5.6514 2.3159 100 150 255
17.4130 -5.6537 2.3159 100 150 255
17.4401 -5.6561 2.3159 100 150 255
17.4671 -5.6585 2.3159 100 150 255
17.4942 -5.6609 2.3159 100 150 255
17.5213 -5.6633 2.3159 100 150 255
17.5484 -5.6657 2.3159 100 150 255
17.5755 -5.6681 2.3159 100 150 255
17.6026 -5.6705 2.3159 100 150 255
17.6297 -5.6729 2.3159 100 150 255
17.6567 -5.6752 2.3159 100 150 255
17.6838 -5.6776 2.3159 100 150 255
17.7109 -5.6800 2.3159 100 150 255
17.7380 -5.6824 2.3159 100 150 255
17.7651 -5.6848 2.3159 100 150 255
17.7922 -5.6872 2.3159 100 150 255
17.8193 -5.6896 2.3159 100 150 255
17.8463 -5.6920 2.3159 100 150 255
17.8734 -5.6944 2.3159 100 150 255
17.9005 -5.6967 2.3159 100 150 255
17.9005 -5.6967 2.3159 100 150 255
17.9056 -5.6389 2.3159 100 150 255
17.9107 -5.5810 2.3159 100 150 255
17.9158 -5.5231 2.3159 100 150 255
17.9209 -5.4652 2.3159 100 150 255
17.9261 -5.4073 2.3159 100 150 255
17.9312 -5.3494 2.3159 100 150 255
17.9363 -5.2915 2.3159 100 150 255
17.9414 -5.2336 2.3159 100 150 255
17.9465 -5.1757 2.3159 100 150 255
17.9516 -5.1178 2.3159 100 150 255
17.9567 -5.0599 2.3159 100 150 255
17.9618 -5.0020 2.3159 100 150 255
17.9669 -4.9441 2.3159 100 150 255
17.9720 -4.8862 2.3159 100 150 255
17.9771 -4.8284 2.3159 100 150 255
17.9822 -4.7705 2.3159 100 150 255
17.9873 -4.7126 2.3159 100 150 255
17.9924 -4.6547 2.3159 100 150 255
17.9975 -4.5968 2.3159 100 150 255
18.0026 -4.5389 2.3159 100 150 255
18.0078 -4.4810 2.3159 100 150 255
18.0129 -4.4231 2.3159 100 150 255
18.0180 -4.3652 2.3159 100 150 255
18.0231 -4.3073 2.3159 100 150 255
18.0282 -4.2494 2.3159 100 150 255
18.0333 -4.1915 2.3159 100 150 255
18.0384 -4.1336 2.3159 100 150 255
18.0435 -4.0757 2.3159 100 150 255
18.0486 -4.0178 2.3159 100 150 255
18.0537 -3.9600 2.3159 100 150 255
18.0588 -3.9021 2.3159 100 150 255
18.0639 -3.8442 2.3159 100 150 255
18.0690 -3.7863 2.3159 100 150 255
18.0741 -3.7284 2.3159 100 150 255
18.0792 -3.6705 2.3159 100 150 255
18.0844 -3.6126 2.3159 100 150 255
18.0895 -3.5547 2.3159 100 150 255
18.0946 -3.4968 2.3159 100 150 255
18.0997 -3.4389 2.3159 100 150 255
18.1048 -3.3810 2.3159 100 150 255
18.1099 -3.3231 2.3159 100 150 255
18.1150 -3.2652 2.3159 100 150 255
18.1201 -3.2073 2.3159 100 150 255
18.1252 -3.1495 2.3159 100 150 255
18.1303 -3.0916 2.3159 100 150 255
18.1354 -3.0337 2.3159 100 150 255
18.1405 -2.9758 2.3159 100 150 255
18.1456 -2.9179 2.3159 100 150 255
18.1507 -2.8600 2.3159 100 150 255
18.1558 -2.8021 2.3159 100 150 255
18.1610 -2.7442 2.3159 100 150 255
18.1661 -2.6863 2.3159 100 150 255
18.1712 -2.6284 2.3159 100 150 255
18.1763 -2.5705 2.3159 100 150 255
18.1814 -2.5126 2.3159 100 150 255
18.1865 -2.4547 2.3159 100 150 255
18.1916 -2.3968 2.3159 100 150 255
18.1967 -2.3389 2.3159 100 150 255
18.2018 -2.2811 2.3159 100 150 255
18.2069 -2.2232 2.3159 100 150 255
18.2120 -2.1653 2.3159 100 150 255
18.2171 -2.1074 2.3159 100 150 255
18.2222 -2.0495 2.3159 100 150 255
18.2273 -1.9916 2.3159 100 150 255
18.2324 -1.9337 2.3159 100 150 255
18.2376 -1.8758 2.3159 100 150 255
18.2427 -1.8179 2.3159 100 150 255
18.2478 -1.7600 2.3159 100 150 255
18.2529 -1.7021 2.3159 100 150 255
18.2580 -1.6442 2.3159 100 150 255
18.2631 -1.5863 2.3159 100 150 255
18.2682 -1.5284 2.3159 100 150 255
18.2733 -1.4706 2.3159 100 150 255
18.2784 -1.4127 2.3159 100 150 255
18.2835 -1.3548 2.3159 100 150 255
18.2886 -1.2969 2.3159 100 150 255
18.2937 -1.2390 2.3159 100 150 255
18.2988 -1.1811 2.3159 100 150 255
18.3039 -1.1232 2.3159 100 150 255
18.3090 -1.0653 2.3159 100 150 255
18.3141 -1.0074 2.3159 100 150 255
18.3193 -0.9495 2.3159 100 150 255
18.3244 -0.8916 2.3159 100 150 255
18.3295 -0.8337 2.3159 100 150 255
18.3346 -0.7758 2.3159 100 150 255
18.3397 -0.7179 2.3159 100 150 255
18.3448 -0.6600 2.3159 100 150 255
18.3499 -0.6022 2.3159 100 150 255
18.3550 -0.5443 2.3159 100 150 255
18.3601 -0.4864 2.3159 100 150 255
18.3652 -0.4285 2.3159 100 150 255
18.3703 -0.3706 2.3159 100 150 255
18.3754 -0.3127 2.3159 100 150 255
18.3805 -0.2548 2.3159 100 150 255
18.3856 -0.1969 2.3159 100 150 255
18.3907 -0.1390 2.3159 100 150 255
18.3959 -0.0811 2.3159 100 150 255
18.4010 -0.0232 2.3159 100 150 255
18.4061 0.0347 2.3159 100 150 255
18.4061 0.0347 2.3159 100 150 255
18.3790 0.0371 2.3159 100 150 255
18.3519 0.0394 2.3159 100 150 255
18.3248 0.0418 2.3159 100 150 255
18.2977 0.0442 2.3159 100 150 255
18.2706 0.0466 2.3159 100 150 255
18.2436 0.0490 2.3159 100 150 255
18.2165 0.0514 2.3159 100 150 255
18.1894 0.0538 2.3159 100 150 255
18.1623 0.0562 2.3159 100 150 255
18.1352 0.0586 2.3159 100 150 255
18.1081 0.0609 2.3159 100 150 255
18.0810 0.0633 2.3159 100 150 255
18.0540 0.0657 2.3159 100 150 255
18.0269 0.0681 2.3159 100 150 255
17.9998 0.0705 2.3159 100 150 255
17.9727 0.0729 2.3159 100 150 255
17.9456 0.0753 2.3159 100 150 255
17.9185 0.0777 2.3159 100 150 255
17.8914 0.0801 2.3159 100 150 255
17.8644 0.0825 2.3159 100 150 255
17.8373 0.0848 2.3159 100 150 255
17.8102 0.0872 2.3159 100 150 255
17.7831 0.0896 2.3159 100 150 255
17.7560 0.0920 2.3159 100 150 255
17.7289 0.0944 2.3159 100 150 255
17.7018 0.0968 2.3159 100 150 255
17.6748 0.0992 2.3159 100 150 255
17.6477 0.1016 2.3159 100 150 255
17.6206 0.1040 2.3159 100 150 255
17.5935 0.1063 2.3159 100 150 255
17.5664 0.1087 2.3159 100 150 255
17.5393 0.1111 2.3159 100 150 255
17.5122 0.1135 2.3159 100 150 255
17.4851 0.1159 2.3159 100 150 255
17.4581 0.1183 2.3159 100 150 255
17.4310 0.1207 2.3159 100 150 255
17.4039 0.1231 2.3159 100 150 255
17.3768 0.1255 2.3159 100 150 255
17.3497 0.1278 2.3159 100 150 255
17.3226 0.1302 2.3159 100 150 255
17.2955 0.1326 2.3159 100 150 255
17.2685 0.1350 2.3159 100 150 255
17.2414 0.1374 2.3159 100 150 255
17.2143 0.1398 2.3159 100 150 255
17.1872 0.1422 2.3159 100 150 255
17.1601 0.1446 2.3159 100 150 255
17.1330 0.1470 2.3159 100 150 255
17.1059 0.1493 2.3159 100 150 255
17.0789 0.1517 2.3159 100 150 255
17.0518 0.1541 2.3159 100 150 255
17.0247 0.1565 2.3159 100 150 255
16.9976 0.1589 2.3159 100 150 255
16.9705 0.1613 2.3159 100 150 255
16.9434 0.1637 2.3159 100 150 255
16.9163 0.1661 2.3159 100 150 255
16.8893 0.1685 2.3159 100 150 255
16.8622 0.1708 2.3159 100 150 255
16.8351 0.1732 2.3159 100 150 255
16.8080 0.1756 2.3159 100 150 255
16.7809 0.1780 2.3159 100 150 255
16.7538 0.1804 2.3159 100 150 255
16.7267 0.1828 2.3159 100 150 255
16.6997 0.1852 2.3159 100 150 255
16.6726 0.1876 2.3159 100 150 255
16.6455 0.1900 2.3159 100 150 255
16.6184 0.1924 2.3159 100 150 255
16.5913 0.1947 2.3159 100 150 255
16.5642 0.1971 2.3159 100 150 255
16.5371 0.1995 2.3159 100 150 255
16.5101 0.2019 2.3159 100 150 255
16.4830 0.2043 2.3159 100 150 255
16.4559 0.2067 2.3159 100 150 255
16.4288 0.2091 2.3159 100 150 255
16.4017 0.2115 2.3159 100 150 255
16.3746 0.2139 2.3159 100 150 255
16.3475 0.2162 2.3159 100 150 255
16.3205 0.2186 2.3159 100 150 255
16.2934 0.2210 2.3159 100 150 255
16.2663 0.2234 2.3159 100 150 255
16.2392 0.2258 2.3159 100 150 255
16.2121 0.2282 2.3159 100 150 255
16.1850 0.2306 2.3159 100 150 255
16.1579 0.2330 2.3159 100 150 255
16.1309 0.2354 2.3159 100 150 255
16.1038 0.2377 2.3159 100 150 255
16.0767 0.2401 2.3159 100 150 255
16.0496 0.2425 2.3159 100 150 255
16.0225 0.2449 2.3159 100 150 255
15.9954 0.2473 2.3159 100 150 255
15.9683 0.2497 2.3159 100 150 255
15.9413 0.2521 2.3159 100 150 255
15.9142 0.2545 2.3159 100 150 255
15.8871 0.2569 2.3159 100 150 255
15.8600 0.2592 2.3159 100 150 255
15.8329 0.2616 2.3159 100 150 255
15.8058 0.2640 2.3159 100 150 255
15.7787 0.2664 2.3159 100 150 255
15.7517 0.2688 2.3159 100 150 255
15.7246 0.2712 2.3159 100 150 255
15.7246 0.2712 0.0770 100 150 255
15.7246 0.2712 0.0996 100 150 255
15.7246 0.2712 0.1222 100 150 255
15.7246 0.2712 0.1448 100 150 255
15.7246 0.2712 0.1674 100 150 255
15.7246 0.2712 0.1900 100 150 255
15.7246 0.2712 0.2127 100 150 255
15.7246 0.2712 0.2353 100 150 255
15.7246 0.2712 0.2579 100 150 255
15.7246 0.2712 0.2805 100 150 255
15.7246 0.2712 0.3031 100 150 255
15.7246 0.2712 0.3257 100 150 255
15.7246 0.2712 0.3483 100 150 255
15.7246 0.2712 0.3710 100 150 255
15.7246 0.2712 0.3936 100 150 255
15.7246 0.2712 0.4162 100 150 255
15.7246 0.2712 0.4388 100 150 255
15.7246 0.2712 0.4614 100 150 255
15.7246 0.2712 0.4840 100 150 255
15.7246 0.2712 0.5067 100 150 255
15.7246 0.2712 0.5293 100 150 255
15.7246 0.2712 0.5519 100 150 255
15.7246 0.2712 0.5745 100 150 255
15.7246 0.2712 0.5971 100 150 255
15.7246 0.2712 0.6197 100 150 255
15.7246 0.2712 0.6423 100 150 255
15.7246 0.2712 0.6650 100 150 255
15.7246 0.2712 0.6876 100 150 255
15.7246 0.2712 0.7102 100 150 255
15.7246 0.2712 0.7328 100 150 255
15.7246 0.2712 0.7554 100 150 255
15.7246 0.2712 0.7780 100 150 255
15.7246 0.2712 0.8007 100 150 255
15.7246 0.2712 0.8233 100 150 255
15.7246 0.2712 0.8459 100 150 255
15.7246 0.2712 0.8685 100 150 255
15.7246 0.2712 0.8911 100 150 255
15.7246 0.2712 0.9137 100 150 255
15.7246 0.2712 0.9363 100 150 255
15.7246 0.2712 0.9590 100 150 255
15.7246 0.2712 0.9816 100 150 255
15.7246 0.2712 1.0042 100 150 255
15.7246 0.2712 1.0268 100 150 255
15.7246 0.2712 1.0494 100 150 255
15.7246 0.2712 1.0720 100 150 255
15.7246 0.2712 1.0946 100 150 255
15.7246 0.2712 1.1173 100 150 255
15.7246 0.2712 1.1399 100 150 255
15.7246 0.2712 1.1625 100 150 255
15.7246 0.2712 1.1851 100 150 255
15.7246 0.2712 1.2077 100 150 255
15.7246 0.2712 1.2303 100 150 255
15.7246 0.2712 1.2530 100 150 255
15.7246 0.2712 1.2756 100 150 255
15.7246 0.2712 1.2982 100 150 255
15.7246 0.2712 1.3208 100 150 255
15.7246 0.2712 1.3434 100 150 255
15.7246 0.2712 1.3660 100 150 255
15.7246 0.2712 1.3886 100 150 255
15.7246 0.2712 1.4113 100 150 255
15.7246 0.2712 1.4339 100 150 255
15.7246 0.2712 1.4565 100 150 255
15.7246 0.2712 1.4791 100 150 255
15.7246 0.2712 1.5017 100 150 255
15.7246 0.2712 1.5243 100 150 255
15.7246 0.2712 1.5470 100 150 255
15.7246 0.2712 1.5696 100 150 255
15.7246 0.2712 1.5922 100 150 255
15.7246 0.2712 1.6148 100 150 255
15.7246 0.2712 1.6374 100 150 255
15.7246 0.2712 1.6600 100 150 255
15.7246 0.2712 1.6826 100 150 255
15.7246 0.2712 1.7053 100 150 255
15.7246 0.2712 1.7279 100 150 255
15.7246 0.2712 1.7505 100 150 255
15.7246 0.2712 1.7731 100 150 255
15.7246 0.2712 1.7957 100 150 255
15.7246 0.2712 1.8183 100 150 255
15.7246 0.2712 1.8409 100 150 255
15.7246 0.2712 1.8636 100 150 255
15.7246 0.2712 1.8862 100 150 255
15.7246 0.2712 1.9088 100 150 255
15.7246 0.2712 1.9314 100 150 255
15.7246 0.2712 1.9540 100 150 255
15.7246 0.2712 1.9766 100 150 255
15.7246 0.2712 1.9993 100 150 255
15.7246 0.2712 2.0219 100 150 255
15.7246 0.2712 2.0445 100 150 255
