ply
format ascii 1.0
element vertex 1528
property float x
property float y
property float z
property uchar red
property uchar green
property uchar blue
end_header
1.2052 0.5443 1.4746 60 60 60
8.0006 -10.3390 2.9500 60 60 60
-1.7164 -35.1465 5.9948 60 60 60
0.9530 0.0005 1.8395 60 60 60
7.3531 4.8214 0.0147 60 60 60
1.4593 -0.2354 1.4736 60 60 60
1.8469 -0.3182 1.3320 60 60 60
-6.0695 0.8300 -0.0142 60 60 60
0.8807 0.0013 1.8377 60 60 60
1.2662 0.4728 1.4831 60 60 60
-4.6176 -3.1966 -0.0557 60 60 60
-12.4327 7.3277 -0.0173 60 60 60
-1.4820 3.0792 0.0127 60 60 60
-2.5682 3.8147 0.0057 60 60 60
-3.6151 -3.2473 0.3115 60 60 60
-4.3166 -11.5299 1.7549 60 60 60
0.8753 0.0014 1.8376 60 60 60
-4.2810 -11.5164 2.6382 60 60 60
0.9523 0.0004 1.8395 60 60 60
-8.2200 -4.1576 -0.1156 60 60 60
-1.8770 -3.5647 1.1066 60 60 60
-1.0337 -4.5170 -0.1288 60 60 60
3.7607 5.1562 0.0063 60 60 60
5.2475 0.0698 0.0163 60 60 60
0.0302 -0.1925 1.4967 60 60 60
-0.8327 2.9465 0.0157 60 60 60
0.7050 -4.5827 0.6337 60 60 60
0.9401 0.0005 1.8392 60 60 60
0.9544 0.0004 1.8395 60 60 60
9.3806 -28.8831 6.3140 60 60 60
-76.3844 19.2683 1.7442 60 60 60
-3.9562 3.8585 -0.0120 60 60 60
3.0778 6.4062 -0.0341 60 60 60
-3.2720 -11.4469 4.0112 60 60 60
1.3370 0.5194 1.4782 60 60 60
3.6812 -11.2052 0.6027 60 60 60
2.9863 3.4959 0.0195 60 60 60
2.1688 -2.9585 -0.0593 60 60 60
-2.2291 3.2057 0.0081 60 60 60
0.2477 0.0179 1.5455 60 60 60
0.4771 4.7843 0.0025 60 60 60
0.2121 -4.3983 1.0200 60 60 60
-2.1069 -3.4168 0.6672 60 60 60
8.7836 9.3422 1.4947 60 60 60
11.2537 8.5024 2.0059 60 60 60
-28.1374 18.9049 4.0450 60 60 60
9.8522 9.4559 1.1425 60 60 60
2.5669 2.9941 0.0135 60 60 60
-0.0696 8.3343 -0.0751 60 60 60
2.9518 -4.3038 -0.1471 60 60 60
-1.5714 12.6167 4.1169 60 60 60
-1.3009 -9.0543 0.3857 60 60 60
-4.0499 -11.5047 2.3285 60 60 60
-22.2846 9.1534 0.0301 60 60 60
9.3136 8.2612 3.1243 60 60 60
5.2922 3.4416 0.0150 60 60 60
0.8994 0.0011 1.8382 60 60 60
5.1880 -1.4570 -0.0472 60 60 60
-8.5142 -11.8914 4.3868 60 60 60
1.4422 -0.4534 1.5292 60 60 60
1.1608 5.4365 -0.0075 60 60 60
0.2542 0.1760 1.5167 60 60 60
0.1202 -4.1075 -0.1132 60 60 60
0.2591 0.3853 1.5006 60 60 60
0.1461 -0.0200 1.5881 60 60 60
1.5125 9.3891 3.3747 60 60 60
0.2862 -0.1384 1.5187 60 60 60
0.9417 0.0006 1.8392 60 60 60
0.9259 0.0008 1.8389 60 60 60
0.0192 -4.3021 0.9347 60 60 60
4.4033 8.4144 2.1190 60 60 60
-5.4465 -0.7867 -0.0165 60 60 60
-2.1813 8.2026 -0.0657 60 60 60
-10.2554 13.2194 3.2079 60 60 60
24.6200 -25.3154 6.3628 60 60 60
3.8153 5.1111 0.0070 60 60 60
1.7189 9.2661 0.5078 60 60 60
4.3743 2.8485 0.0139 60 60 60
0.9270 0.0008 1.8389 60 60 60
0.4642 -0.3688 1.5115 60 60 60
2.0238 3.1116 0.0071 60 60 60
1.6690 -3.4354 -0.0917 60 60 60
2.2333 -11.1023 3.8551 60 60 60
-17.8811 15.6501 3.9014 60 60 60
-2.5226 -3.1780 0.0511 60 60 60
5.9316 -4.5182 -0.1960 60 60 60
26.9409 -18.2236 5.7950 60 60 60
0.9623 0.0003 1.8397 60 60 60
14.4241 -12.2386 -0.0953 60 60 60
1.4044 -0.0798 1.4909 60 60 60
1.4111 -0.0616 1.4875 60 60 60
4.2805 8.4699 2.5509 60 60 60
0.8750 0.0013 1.8376 60 60 60
-15.2377 15.0970 3.1471 60 60 60
-4.5899 11.4447 3.3221 60 60 60
-2.4371 10.9493 4.2006 60 60 60
0.6732 4.7732 0.0030 60 60 60
5.4789 -4.0688 -0.1619 60 60 60
0.9533 0.0004 1.8395 60 60 60
-0.3621 3.5756 0.0107 60 60 60
0.2899 0.2820 1.5138 60 60 60
-2.4478 3.4317 0.0104 60 60 60
0.1361 -0.3732 1.4868 60 60 60
0.0257 -0.3460 1.4777 60 60 60
1.3589 -0.3593 1.5139 60 60 60
0.1756 -3.1627 -0.0564 60 60 60
-12.6310 8.2361 1.7495 60 60 60
-11.6082 -3.5558 1.1930 60 60 60
0.9623 0.0003 1.8397 60 60 60
-0.5940 3.5036 0.0130 60 60 60
-4.7065 11.2905 4.2230 60 60 60
0.8959 0.0011 1.8381 60 60 60
-23.3067 7.5169 0.0235 60 60 60
-15.9257 14.9319 4.7770 60 60 60
-1.6410 -11.2931 4.1143 60 60 60
1.8832 -8.5571 0.1448 60 60 60
12.1601 8.5886 2.3299 60 60 60
2.9772 -14.2350 3.0493 60 60 60
-2.4391 -3.4104 1.8735 60 60 60
10.2354 8.4059 2.3059 60 60 60
4.0761 8.4999 0.8580 60 60 60
0.5931 -3.8692 -0.1078 60 60 60
0.8918 0.0011 1.8380 60 60 60
0.1857 6.1025 -0.0223 60 60 60
1.9752 3.5685 0.0109 60 60 60
-10.6406 13.1876 0.7774 60 60 60
2.0867 5.1165 0.0060 60 60 60
2.4080 9.0694 0.7093 60 60 60
-6.1521 -0.2999 -0.0253 60 60 60
3.3513 8.7635 2.1670 60 60 60
-0.2870 -4.1921 1.0618 60 60 60
0.9785 0.0001 1.8400 60 60 60
6.9668 -10.4489 2.6592 60 60 60
1.5317 -4.2489 -0.1236 60 60 60
12.1686 8.4946 0.3450 60 60 60
-5.2841 -4.4837 2.4720 60 60 60
-12.5430 13.9450 5.2507 60 60 60
-4.2036 -3.0476 1.2305 60 60 60
0.0097 4.1584 0.0048 60 60 60
0.2645 0.3980 1.4995 60 60 60
5.1026 -10.6621 2.4195 60 60 60
4.0289 3.2927 0.0155 60 60 60
1.3919 -11.2559 3.6392 60 60 60
-4.7621 -11.5834 1.4675 60 60 60
5.3289 -2.2100 -0.0751 60 60 60
1.5426 0.3218 1.4466 60 60 60
1.2931 0.3512 1.5006 60 60 60
-9.8390 -12.0343 4.2000 60 60 60
0.9509 0.0004 1.8394 60 60 60
0.9949 0.4298 1.5754 60 60 60
6.1255 -10.5611 3.7849 60 60 60
1.8362 -0.3460 1.3333 60 60 60
-1.6503 2.9643 0.0120 60 60 60
0.8633 6.0291 -0.0178 60 60 60
8.4532 9.2961 1.2305 60 60 60
3.8630 8.5941 2.3549 60 60 60
-7.7393 0.4578 1.2285 60 60 60
0.5230 -0.4827 1.5063 60 60 60
-20.6324 10.7444 0.0589 60 60 60
2.3283 -4.2792 -0.1377 60 60 60
0.9517 0.0004 1.8395 60 60 60
2.8127 -4.4009 -0.1518 60 60 60
0.9390 0.0006 1.8392 60 60 60
-3.9263 -15.9837 1.2401 60 60 60
1.4676 -0.0304 1.5254 60 60 60
0.9644 0.0003 1.8397 60 60 60
-5.0306 2.0782 0.0073 60 60 60
1.6468 9.3010 2.0377 60 60 60
14.1141 8.7623 0.8795 60 60 60
0.1557 0.3130 1.5005 60 60 60
-1.1255 -11.2915 3.2475 60 60 60
3.1740 -4.6196 -0.1698 60 60 60
2.0087 -4.4782 0.9042 60 60 60
-8.9846 -2.3348 0.3805 60 60 60
-0.3911 -5.0775 -0.1578 60 60 60
0.8772 0.0013 1.8376 60 60 60
0.8753 0.0014 1.8376 60 60 60
4.6847 8.3487 3.4070 60 60 60
0.9644 0.0003 1.8397 60 60 60
0.9338 0.0007 1.8391 60 60 60
0.2678 -8.8580 -0.0444 60 60 60
1.5582 0.0404 1.5348 60 60 60
1.8053 9.2479 2.0295 60 60 60
5.0268 1.4173 0.0236 60 60 60
2.8072 -8.3765 0.3139 60 60 60
-5.0411 -37.2184 2.8916 60 60 60
5.2102 -7.9490 -0.0935 60 60 60
-1.0542 4.6007 -0.0029 60 60 60
1.5230 -0.0109 1.5334 60 60 60
5.6100 -4.8073 -0.0015 60 60 60
-0.8056 -4.2408 -0.1214 60 60 60
-5.9454 12.0231 3.4938 60 60 60
0.6254 -3.3916 -0.0712 60 60 60
1.3702 -0.2223 1.4915 60 60 60
0.1386 0.0584 1.5847 60 60 60
-0.8803 6.6565 -0.0300 60 60 60
3.3862 3.1529 0.0191 60 60 60
1.3771 4.3007 0.0079 60 60 60
-3.1867 2.6675 0.0086 60 60 60
1.5874 0.2101 1.4446 60 60 60
14.5580 -13.2292 0.7346 60 60 60
-4.2339 4.4895 -0.0303 60 60 60
9.1633 9.3856 0.8915 60 60 60
0.4196 0.2915 1.5272 60 60 60
2.0090 6.9096 -0.0395 60 60 60
-8.6777 -12.0642 0.0860 60 60 60
0.9567 -11.2082 2.3308 60 60 60
1.4835 0.2250 1.4748 60 60 60
0.1381 0.0538 1.5847 60 60 60
0.9590 0.0004 1.8396 60 60 60
-5.5506 -3.7050 1.6057 60 60 60
0.8686 0.0014 1.8374 60 60 60
-1.4163 10.3247 2.7241 60 60 60
0.9834 0.0000 1.8401 60 60 60
-3.3244 9.1089 -0.0684 60 60 60
0.9181 0.0008 1.8387 60 60 60
1.5175 -0.0260 1.5359 60 60 60
0.9544 0.0005 1.8395 60 60 60
-2.6125 -11.4002 3.3705 60 60 60
5.5653 -0.3144 0.0066 60 60 60
0.9601 0.0003 1.8396 60 60 60
0.9531 0.0004 1.8395 60 60 60
1.2187 0.5163 1.4824 60 60 60
-5.8539 11.8989 3.8015 60 60 60
0.9512 0.0004 1.8394 60 60 60
8.3958 -10.3235 1.4677 60 60 60
1.4082 -0.0550 1.4897 60 60 60
1.5805 9.3451 2.6991 60 60 60
7.8595 -7.3330 0.5519 60 60 60
0.9552 0.0004 1.8395 60 60 60
2.9996 -3.1472 -0.0838 60 60 60
1.3509 -0.5370 1.4567 60 60 60
4.8132 8.2758 1.2453 60 60 60
1.4240 0.3847 1.5247 60 60 60
10.1528 8.4131 2.5976 60 60 60
2.0673 -4.4163 -0.1476 60 60 60
-2.3196 10.5314 0.4743 60 60 60
0.4147 0.2901 1.5254 60 60 60
-3.7847 -9.5063 0.2901 60 60 60
8.7832 -29.3421 6.3869 60 60 60
-5.3711 11.4813 1.8619 60 60 60
7.4716 -6.5511 -0.0167 60 60 60
0.8197 -4.5447 0.8634 60 60 60
0.1692 -0.0284 1.5752 60 60 60
0.9479 0.0005 1.8394 60 60 60
-2.0910 -2.7391 -0.0487 60 60 60
0.9224 0.0008 1.8388 60 60 60
1.5852 9.3203 0.9505 60 60 60
0.1394 9.6249 1.9078 60 60 60
-4.3632 -11.5160 2.6435 60 60 60
-22.2315 9.2865 0.0280 60 60 60
6.2573 -10.5495 3.2251 60 60 60
-9.2849 13.0227 3.9047 60 60 60
6.0251 3.0285 0.0230 60 60 60
5.4157 7.9912 2.7204 60 60 60
11.1164 7.7179 0.1813 60 60 60
3.9507 -8.1771 0.2377 60 60 60
0.9148 0.0010 1.8386 60 60 60
6.5289 -4.8145 -0.0234 60 60 60
-3.0865 2.8037 0.0068 60 60 60
-5.0259 3.7835 -0.0600 60 60 60
1.3491 -0.3957 1.5072 60 60 60
0.9606 0.0003 1.8397 60 60 60
-4.4562 11.5841 3.9311 60 60 60
1.3732 0.4320 1.5317 60 60 60
-7.1288 -0.9306 1.0713 60 60 60
3.0892 -3.7733 -0.1161 60 60 60
0.1382 -0.0529 1.5215 60 60 60
-2.6065 -3.2063 0.8683 60 60 60
0.0865 4.1553 0.0094 60 60 60
-2.1918 -5.7386 -0.0613 60 60 60
11.3025 8.5362 3.9061 60 60 60
-0.6892 10.0382 0.5174 60 60 60
-4.1249 3.6738 -0.0119 60 60 60
1.7237 -6.1156 -0.1475 60 60 60
1.2322 -3.5590 -0.0953 60 60 60
2.4987 3.8160 0.0207 60 60 60
0.9433 0.0005 1.8393 60 60 60
-0.7041 3.0017 0.0178 60 60 60
10.9696 8.4536 0.4677 60 60 60
8.5633 -4.5209 -0.0017 60 60 60
2.9551 3.2380 0.0104 60 60 60
5.9009 -0.2788 0.0110 60 60 60
2.8293 -3.6160 -0.1063 60 60 60
3.1267 5.0290 0.0109 60 60 60
14.3381 -10.9225 0.7898 60 60 60
-3.4725 -11.3996 4.3217 60 60 60
8.0272 -10.3552 0.6025 60 60 60
0.9550 0.0004 1.8395 60 60 60
9.4320 8.3413 3.7063 60 60 60
-2.8060 4.7568 -0.0061 60 60 60
-0.4241 -4.3408 -0.1271 60 60 60
1.3359 -0.3543 1.5086 60 60 60
-8.7442 -12.1057 2.6120 60 60 60
-1.6077 10.1300 0.7694 60 60 60
0.9173 0.0009 1.8387 60 60 60
-3.7815 -5.2931 -0.1537 60 60 60
-2.4481 -11.7464 0.5359 60 60 60
2.7774 8.9495 0.9129 60 60 60
1.0103 -0.4272 1.5692 60 60 60
0.9281 0.0007 1.8390 60 60 60
0.2569 0.1506 1.5406 60 60 60
4.5570 8.3434 0.3985 60 60 60
3.6088 3.2994 0.0209 60 60 60
8.7684 -10.2610 3.2633 60 60 60
0.0395 0.2314 1.4943 60 60 60
4.8899 7.4369 1.0755 60 60 60
5.4884 0.8151 0.0170 60 60 60
1.3625 0.4386 1.5337 60 60 60
0.9048 0.0011 1.8383 60 60 60
-7.5846 -1.6994 -0.0277 60 60 60
1.4366 -0.3655 1.5327 60 60 60
4.7130 7.5573 0.0708 60 60 60
-20.1127 16.3828 6.0014 60 60 60
1.7647 -3.3974 -0.0895 60 60 60
-0.1302 -6.8932 -0.1305 60 60 60
0.9902 0.5020 1.5534 60 60 60
-1.4986 -3.9268 -0.0983 60 60 60
-11.3489 12.2649 0.0090 60 60 60
-2.5810 -3.0866 0.0617 60 60 60
-5.9046 -3.9963 -0.1083 60 60 60
-25.4754 18.0287 3.1118 60 60 60
0.9086 0.0010 1.8384 60 60 60
-6.2862 12.1583 3.8743 60 60 60
4.5737 -5.9242 0.6698 60 60 60
0.9493 0.0005 1.8394 60 60 60
3.0930 -3.0487 -0.0759 60 60 60
4.9905 -0.6421 -0.0093 60 60 60
1.4717 -0.3160 1.4700 60 60 60
0.9433 0.0006 1.8393 60 60 60
-9.5055 12.8848 0.4262 60 60 60
0.8694 0.0014 1.8374 60 60 60
4.7159 -12.1042 2.2245 60 60 60
1.8323 -11.1182 1.5082 60 60 60
-0.3629 -6.6182 -0.0518 60 60 60
0.9322 0.0007 1.8390 60 60 60
-3.3766 -11.4352 0.8666 60 60 60
-3.3534 -11.4582 4.0214 60 60 60
8.0152 9.2550 0.4341 60 60 60
-1.2250 -11.2553 4.0716 60 60 60
-2.2699 3.5653 0.0119 60 60 60
-4.8708 -2.9154 -0.0727 60 60 60
-4.3830 -11.5392 2.3476 60 60 60
-6.0325 11.9581 4.4885 60 60 60
-2.4972 6.2332 -0.0156 60 60 60
0.9400 0.0006 1.8392 60 60 60
5.3990 -19.6497 2.9916 60 60 60
0.9620 0.0003 1.8397 60 60 60
-1.9233 12.7410 3.8541 60 60 60
-8.3149 -0.4181 1.6175 60 60 60
3.3152 -3.1917 -0.0903 60 60 60
0.9606 0.0003 1.8397 60 60 60
4.5381 4.3703 0.0249 60 60 60
0.2338 -3.8540 -0.1028 60 60 60
-0.5203 -3.1882 -0.0548 60 60 60
0.9587 0.0004 1.8396 60 60 60
2.1496 9.1496 0.7169 60 60 60
-1.1170 -11.3503 3.8011 60 60 60
-14.2381 4.1187 -0.0207 60 60 60
-17.1372 6.6373 -0.0043 60 60 60
5.8807 -10.5927 2.6739 60 60 60
5.7512 -10.5930 3.2232 60 60 60
5.2597 -0.1370 0.0105 60 60 60
0.8983 0.0012 1.8382 60 60 60
-21.8155 16.7993 0.3037 60 60 60
-4.7290 5.0988 -0.0558 60 60 60
0.7662 -4.2545 -0.0646 60 60 60
1.3555 0.2641 1.4969 60 60 60
-1.6073 10.3159 0.4966 60 60 60
0.9309 0.0007 1.8390 60 60 60
0.4783 0.0524 1.6133 60 60 60
0.9335 0.0007 1.8391 60 60 60
0.9021 0.0011 1.8383 60 60 60
1.3242 0.5193 1.4622 60 60 60
2.2733 9.1248 2.8722 60 60 60
1.5482 -11.1288 0.7389 60 60 60
-3.5939 3.4865 -0.0037 60 60 60
-7.8190 -11.8398 4.2888 60 60 60
1.4119 0.0693 1.4833 60 60 60
2.6688 8.9908 2.6295 60 60 60
1.3280 0.5111 1.4639 60 60 60
-1.2528 -3.7434 0.4736 60 60 60
-1.3865 -5.6331 -0.1195 60 60 60
0.9346 0.0007 1.8391 60 60 60
1.4200 -0.2959 1.4820 60 60 60
-4.8870 -1.2655 -0.0374 60 60 60
-0.1020 0.3198 1.4640 60 60 60
-3.2342 -2.8231 -0.0524 60 60 60
8.0351 -10.3514 0.8963 60 60 60
-1.7433 -3.7060 1.6325 60 60 60
1.3961 -4.4664 0.2807 60 60 60
1.3326 -0.3121 1.5061 60 60 60
7.0996 5.4125 -0.0047 60 60 60
3.1707 3.3414 0.0216 60 60 60
-4.4555 11.6226 4.2433 60 60 60
5.2648 -0.5797 -0.0051 60 60 60
-4.7133 1.4716 0.0036 60 60 60
-22.2987 16.9911 5.6647 60 60 60
0.9544 0.0004 1.8395 60 60 60
6.7283 -10.4799 2.1033 60 60 60
9.1991 -10.2319 2.3518 60 60 60
5.2978 1.5646 0.0253 60 60 60
1.5219 0.0896 1.4921 60 60 60
-11.5945 7.9078 1.7499 60 60 60
2.3113 3.9385 0.0125 60 60 60
0.1242 0.1846 1.5062 60 60 60
0.9149 0.0009 1.8386 60 60 60
0.0368 -0.3950 1.4739 60 60 60
1.4217 -0.0993 1.4960 60 60 60
-6.4238 -0.0131 0.4473 60 60 60
1.1440 0.4953 1.4994 60 60 60
0.8641 -11.2955 3.4004 60 60 60
9.4297 5.5791 0.0106 60 60 60
2.3766 9.0277 3.0739 60 60 60
0.3029 0.1321 1.5241 60 60 60
-3.9040 -5.1860 -0.1484 60 60 60
-1.0220 -5.4313 -0.1788 60 60 60
-2.1088 10.8398 3.3368 60 60 60
1.1077 0.5400 1.4882 60 60 60
0.9574 0.0004 1.8396 60 60 60
0.9357 -8.7377 0.3771 60 60 60
-1.7177 10.3961 2.2452 60 60 60
6.0349 -10.5826 2.9493 60 60 60
0.9506 0.0004 1.8394 60 60 60
4.7509 -10.6579 0.3070 60 60 60
0.8750 0.0014 1.8376 60 60 60
0.9541 0.0005 1.8395 60 60 60
0.8937 0.0012 1.8381 60 60 60
-4.1761 1.6779 0.0042 60 60 60
0.3185 -0.4525 1.4881 60 60 60
1.4592 6.3966 -0.0225 60 60 60
1.2270 -3.3334 -0.0764 60 60 60
-4.3228 11.3439 1.5341 60 60 60
5.5005 6.9629 0.0539 60 60 60
0.8772 0.0013 1.8376 60 60 60
0.9552 0.0004 1.8395 60 60 60
-81.5925 10.1747 1.7957 60 60 60
0.9555 0.0004 1.8395 60 60 60
1.6956 -11.1162 1.2534 60 60 60
-6.0812 -11.7331 3.7342 60 60 60
0.9607 0.0003 1.8397 60 60 60
0.9129 0.0009 1.8386 60 60 60
-3.0549 -3.2010 0.1720 60 60 60
0.5050 4.7828 0.0027 60 60 60
1.3764 -4.5956 1.8053 60 60 60
1.2996 -0.3924 1.4949 60 60 60
0.9075 0.0010 1.8384 60 60 60
1.4206 -11.1440 0.7440 60 60 60
5.2258 0.4826 0.0160 60 60 60
-3.1915 -4.7777 1.4277 60 60 60
0.9560 0.0004 1.8396 60 60 60
1.2996 9.4456 3.3920 60 60 60
-1.0662 10.1202 0.5144 60 60 60
0.7566 9.5052 1.8790 60 60 60
5.1850 8.1565 1.4420 60 60 60
2.3413 -3.3444 -0.0859 60 60 60
0.9040 0.0011 1.8383 60 60 60
2.8143 8.9456 1.5538 60 60 60
0.3438 3.1012 0.0119 60 60 60
1.5817 3.7111 0.0136 60 60 60
0.8948 0.0011 1.8381 60 60 60
4.9956 -0.5936 -0.0087 60 60 60
1.4246 -0.0930 1.4767 60 60 60
1.3438 -0.3006 1.5037 60 60 60
-6.2680 -2.9731 -0.0510 60 60 60
-0.2553 -8.9592 0.1659 60 60 60
-7.5878 1.9225 -0.0311 60 60 60
0.9422 0.0006 1.8393 60 60 60
-7.3979 -11.9367 0.1486 60 60 60
2.4595 3.8475 0.0172 60 60 60
-4.9310 -0.9974 -0.0318 60 60 60
0.9270 0.0008 1.8389 60 60 60
1.8106 -11.1027 2.8084 60 60 60
-9.5340 7.1971 1.1597 60 60 60
4.0250 8.5087 0.8613 60 60 60
2.2372 9.1050 0.4969 60 60 60
11.1888 7.5868 0.1795 60 60 60
-7.9052 12.5099 1.2143 60 60 60
-15.6426 14.9350 3.1697 60 60 60
0.8953 0.0011 1.8381 60 60 60
0.9734 0.0002 1.8399 60 60 60
10.1620 -5.4400 1.8998 60 60 60
-20.6056 2.4999 -0.1964 60 60 60
-11.8282 -3.5391 1.4921 60 60 60
0.9555 0.0004 1.8395 60 60 60
-6.1483 -11.8069 0.2015 60 60 60
6.4856 7.9047 0.9162 60 60 60
6.0634 -2.5744 -0.0871 60 60 60
-3.1967 -3.2402 0.2637 60 60 60
5.7057 7.8960 2.2801 60 60 60
0.9306 0.0007 1.8390 60 60 60
0.1094 4.1653 0.0059 60 60 60
-2.2205 5.6449 -0.0069 60 60 60
26.7192 -18.9737 5.0919 60 60 60
-1.2688 8.3166 -0.0681 60 60 60
-1.3881 3.1421 0.0113 60 60 60
-5.7634 -2.8586 0.4266 60 60 60
-0.7202 10.0856 2.1865 60 60 60
-12.4846 12.4993 -0.0751 60 60 60
-10.0249 3.9201 -0.1032 60 60 60
1.4359 3.5458 0.0068 60 60 60
0.9625 -0.4376 1.5715 60 60 60
0.9371 0.0007 1.8391 60 60 60
1.3719 0.3215 1.4897 60 60 60
7.3667 -4.3281 1.3484 60 60 60
-10.2554 13.3062 4.4436 60 60 60
1.4039 0.0555 1.4898 60 60 60
1.8083 0.3168 1.3457 60 60 60
5.6400 7.8246 2.9217 60 60 60
-3.2479 -3.2071 0.3930 60 60 60
-14.1102 -6.3140 0.6147 60 60 60
-1.1764 3.5402 0.0103 60 60 60
-1.2713 10.3515 0.9865 60 60 60
0.7291 4.7624 0.0055 60 60 60
1.2062 -0.4493 1.4942 60 60 60
0.1259 8.3232 -0.0767 60 60 60
-5.4946 -4.3325 0.4850 60 60 60
5.0839 -10.7757 2.6966 60 60 60
25.4078 -23.0828 4.5819 60 60 60
0.1188 3.2567 0.0095 60 60 60
4.9451 -1.0102 -0.0182 60 60 60
-8.0615 6.7521 0.1636 60 60 60
-7.6447 4.6039 -0.0443 60 60 60
9.7767 9.0640 2.6332 60 60 60
-9.8710 13.0898 5.6051 60 60 60
0.5785 4.1663 0.0113 60 60 60
4.2831 4.6436 0.0217 60 60 60
-4.8042 -3.0472 -0.0768 60 60 60
9.9830 7.3060 0.0633 60 60 60
5.1460 8.1873 2.5204 60 60 60
14.1594 8.7994 3.1067 60 60 60
-4.0457 -4.5169 1.1139 60 60 60
-5.6503 -11.7474 0.5396 60 60 60
-10.6269 4.9884 0.0263 60 60 60
0.8737 0.0013 1.8375 60 60 60
-4.4370 4.2973 -0.0311 60 60 60
1.3046 0.4423 1.4795 60 60 60
1.6723 9.3300 3.3595 60 60 60
7.8117 -10.3804 1.4944 60 60 60
-1.2688 3.2073 0.0132 60 60 60
9.9421 8.5856 1.4400 60 60 60
-10.6783 -12.1869 2.7320 60 60 60
-1.1573 3.8620 0.0043 60 60 60
0.9487 0.0005 1.8394 60 60 60
-3.2909 -15.5834 1.9914 60 60 60
-2.4491 9.8074 0.0741 60 60 60
7.9320 -7.4155 0.2960 60 60 60
0.9409 0.0006 1.8392 60 60 60
-8.2955 5.2378 0.0365 60 60 60
0.9365 0.0006 1.8391 60 60 60
-0.6510 -3.3842 -0.0678 60 60 60
2.9401 7.3260 -0.0539 60 60 60
-17.9961 15.9634 1.0294 60 60 60
1.6562 -11.1285 2.0348 60 60 60
3.5652 -2.9106 -0.0792 60 60 60
1.7922 3.6456 0.0099 60 60 60
-5.4260 11.4823 0.9440 60 60 60
4.2149 8.4811 2.3397 60 60 60
4.8916 -3.1920 -0.1078 60 60 60
1.7848 -8.5825 0.1467 60 60 60
-16.7380 7.5512 -0.0155 60 60 60
0.8761 0.0013 1.8376 60 60 60
16.6360 -17.7429 -0.0391 60 60 60
0.9387 0.0006 1.8392 60 60 60
0.5284 -0.4872 1.5060 60 60 60
4.6061 -14.1104 1.2932 60 60 60
0.1033 0.0802 1.5511 60 60 60
-28.0065 18.8854 5.6605 60 60 60
0.9446 0.0006 1.8393 60 60 60
9.5960 9.4235 0.8568 60 60 60
4.2962 8.4471 1.0587 60 60 60
25.8207 -24.9758 0.6302 60 60 60
11.4162 8.5159 2.3198 60 60 60
-3.5463 -4.5817 -0.1137 60 60 60
-0.1403 7.4256 -0.0492 60 60 60
25.9022 -21.4224 6.0226 60 60 60
-1.5694 9.7658 0.0880 60 60 60
-8.9662 4.1312 0.0406 60 60 60
0.8753 0.0013 1.8376 60 60 60
0.9002 0.0011 1.8382 60 60 60
2.9839 -11.0432 3.0287 60 60 60
4.8069 -4.1917 -0.1626 60 60 60
0.3820 0.1611 1.5390 60 60 60
8.5354 8.2286 3.0808 60 60 60
7.9916 -10.3526 2.3633 60 60 60
-0.2264 -3.5206 -0.0775 60 60 60
1.4994 0.0636 1.5241 60 60 60
-2.2438 10.3393 0.7559 60 60 60
2.6022 -4.1199 -0.1299 60 60 60
-6.6287 -11.8421 0.5166 60 60 60
1.4043 0.2774 1.4854 60 60 60
2.0271 9.1681 1.3716 60 60 60
0.2758 -0.2944 1.5106 60 60 60
-2.0468 2.9814 0.0098 60 60 60
-4.3479 11.4321 4.5087 60 60 60
0.1087 4.7888 -0.0003 60 60 60
0.9520 0.0005 1.8395 60 60 60
0.8913 0.0012 1.8380 60 60 60
5.4734 -4.2942 0.8798 60 60 60
-9.6745 6.3583 0.0275 60 60 60
0.8601 -3.3853 -0.0752 60 60 60
8.6593 -4.3253 -0.2216 60 60 60
-3.1181 -11.4325 3.9932 60 60 60
0.9389 0.0006 1.8392 60 60 60
9.5588 9.4293 1.7575 60 60 60
1.4409 -0.2587 1.4792 60 60 60
-12.6400 2.0277 -0.1006 60 60 60
-2.4634 -3.3946 1.8745 60 60 60
-1.1926 -4.4559 -0.1244 60 60 60
-0.4267 10.0040 2.8794 60 60 60
5.0846 -10.7454 0.8106 60 60 60
-2.1235 -3.4871 -0.0714 60 60 60
-1.9360 7.2847 -0.0499 60 60 60
0.9162 0.0009 1.8387 60 60 60
0.9042 -11.2036 0.7633 60 60 60
27.8946 -18.4764 2.0771 60 60 60
-4.7992 2.6096 0.0029 60 60 60
0.1834 9.6947 3.7431 60 60 60
-5.2474 3.2582 -0.0282 60 60 60
4.0345 -19.2521 3.0099 60 60 60
0.9165 0.0009 1.8387 60 60 60
1.3917 -0.0107 1.5179 60 60 60
-5.6730 5.4277 -0.0651 60 60 60
-8.2516 -4.1070 -0.1159 60 60 60
24.6326 -25.3583 5.5505 60 60 60
-6.2071 2.9663 -0.0222 60 60 60
1.6446 -4.4246 0.0325 60 60 60
7.6700 -4.3106 -0.0122 60 60 60
1.4538 -0.2450 1.4748 60 60 60
3.3374 -4.9436 -0.1652 60 60 60
1.8206 -8.1142 -0.1648 60 60 60
-1.4725 -2.9265 -0.0463 60 60 60
0.3181 -0.4166 1.4981 60 60 60
1.4085 0.0463 1.4875 60 60 60
1.0967 8.2269 0.0927 60 60 60
0.9181 0.0009 1.8387 60 60 60
0.9609 0.0003 1.8397 60 60 60
-8.9876 -12.0183 3.7225 60 60 60
0.9167 0.0009 1.8387 60 60 60
-6.8333 11.9408 0.5726 60 60 60
0.9457 0.0005 1.8393 60 60 60
0.4459 0.2963 1.5192 60 60 60
1.0220 3.6282 0.0114 60 60 60
5.9824 -2.8787 -0.1040 60 60 60
5.4854 -10.6185 3.7742 60 60 60
0.2489 0.3243 1.5102 60 60 60
2.2603 -13.1358 2.3590 60 60 60
1.4814 -0.0384 1.5179 60 60 60
0.8769 0.0013 1.8376 60 60 60
8.6958 -10.2775 3.5664 60 60 60
6.8268 -7.6359 0.4120 60 60 60
0.8761 0.0014 1.8376 60 60 60
-5.9965 -3.8992 0.2764 60 60 60
6.3040 -1.5208 -0.0534 60 60 60
0.9598 0.0003 1.8396 60 60 60
12.9924 8.5743 2.3379 60 60 60
0.8696 0.0014 1.8374 60 60 60
2.1846 -4.0164 -0.1239 60 60 60
-0.1132 -0.2103 1.4724 60 60 60
0.9414 0.0006 1.8392 60 60 60
-24.8567 17.9935 6.7875 60 60 60
-0.7192 -3.0954 -0.0454 60 60 60
8.9110 -10.2647 1.4442 60 60 60
0.9490 0.0005 1.8394 60 60 60
0.4487 4.7892 0.0009 60 60 60
-0.3216 -4.2810 0.0280 60 60 60
-4.2352 11.5576 3.3015 60 60 60
-6.9328 -0.0170 -0.0329 60 60 60
-4.9678 2.2099 0.0094 60 60 60
6.2016 -10.5909 0.7374 60 60 60
6.8803 5.8739 -0.0218 60 60 60
1.4253 -0.3116 1.4752 60 60 60
-12.9241 -12.3050 5.9625 60 60 60
1.5692 -0.0730 1.4908 60 60 60
3.0493 -3.1009 -0.0817 60 60 60
-4.1586 6.4300 -0.0438 60 60 60
-1.7105 -11.3159 2.2001 60 60 60
1.7007 9.2821 2.0349 60 60 60
-15.3775 3.3346 -0.1218 60 60 60
-5.0938 11.4264 4.6059 60 60 60
-11.3079 -3.6229 0.9064 60 60 60
-8.3851 -0.0975 1.6174 60 60 60
6.6069 -4.3685 1.5646 60 60 60
1.2822 -0.4951 1.4800 60 60 60
1.3458 -0.2906 1.5055 60 60 60
-4.1501 -11.4885 3.8130 60 60 60
1.4309 -4.6078 1.8028 60 60 60
-24.2946 -19.3912 7.4495 60 60 60
-12.9667 -12.3065 4.6284 60 60 60
6.7973 -10.4619 2.1010 60 60 60
4.4553 2.7098 0.0174 60 60 60
3.7821 -4.6264 -0.1670 60 60 60
1.4034 -0.1881 1.4959 60 60 60
-1.8649 -4.0953 -0.0970 60 60 60
5.5652 -0.7617 -0.0110 60 60 60
-5.2597 11.4749 3.6952 60 60 60
0.9102 0.0010 1.8385 60 60 60
-4.3139 11.2536 0.9582 60 60 60
-1.3597 -9.0686 0.3838 60 60 60
4.0940 8.4971 0.2081 60 60 60
-4.4595 11.3101 3.0043 60 60 60
-0.0952 0.1905 1.4784 60 60 60
0.9506 0.0004 1.8394 60 60 60
1.3432 -6.7682 -0.1490 60 60 60
4.7474 1.3766 0.0263 60 60 60
-10.9478 13.3201 4.5303 60 60 60
3.7526 3.1582 0.0177 60 60 60
-4.9211 -4.7519 2.0957 60 60 60
1.3124 -0.3564 1.4840 60 60 60
-4.4237 -1.4559 -0.0571 60 60 60
-5.8059 1.7199 0.0051 60 60 60
0.9615 0.0003 1.8397 60 60 60
1.3395 0.2743 1.5025 60 60 60
0.4305 0.3058 1.5277 60 60 60
-1.7108 -11.3760 0.5661 60 60 60
0.9623 0.0003 1.8397 60 60 60
1.8331 4.1464 0.0131 60 60 60
0.8949 -4.8710 -0.0797 60 60 60
5.0519 1.3164 0.0250 60 60 60
-1.6602 -2.7812 -0.0429 60 60 60
5.0386 2.2080 0.0321 60 60 60
1.1616 0.4907 1.4957 60 60 60
0.9727 0.4723 1.5720 60 60 60
1.6009 9.3033 0.2876 60 60 60
2.1605 9.1618 1.7970 60 60 60
0.9517 0.0005 1.8395 60 60 60
-1.6924 3.2373 0.0141 60 60 60
0.9593 0.0003 1.8396 60 60 60
2.0555 -3.0285 -0.0650 60 60 60
6.4034 7.9190 2.7293 60 60 60
1.3447 0.4784 1.5091 60 60 60
0.8999 0.0011 1.8382 60 60 60
2.4254 -3.0452 -0.0751 60 60 60
0.1997 0.0279 1.5655 60 60 60
0.0373 -0.4011 1.4730 60 60 60
4.0640 -8.1783 0.0124 60 60 60
-0.8672 8.3428 -0.0707 60 60 60
0.1829 3.8978 0.0135 60 60 60
0.1200 -11.3005 0.7878 60 60 60
-2.5941 -9.2904 0.3455 60 60 60
0.2621 -0.0605 1.5321 60 60 60
-4.8286 11.3327 3.9391 60 60 60
-0.7121 -3.9378 -0.1034 60 60 60
0.9159 0.0009 1.8386 60 60 60
0.9072 0.0010 1.8384 60 60 60
-8.1959 12.6668 3.7652 60 60 60
1.6756 6.3247 -0.0198 60 60 60
-3.4890 -11.4181 4.0297 60 60 60
8.8497 -10.2413 3.2643 60 60 60
14.3899 -12.4641 1.1868 60 60 60
8.9137 -29.3356 4.9496 60 60 60
5.8632 -10.6050 1.8555 60 60 60
-6.5112 2.0402 -0.0061 60 60 60
-2.9739 -3.2064 1.8928 60 60 60
-6.3322 11.9137 2.2122 60 60 60
15.2850 -9.3465 3.5564 60 60 60
0.8775 0.0013 1.8376 60 60 60
0.9403 0.0005 1.8392 60 60 60
1.5372 -4.5944 1.7979 60 60 60
-0.3455 3.8153 0.0143 60 60 60
1.9601 9.1884 2.0213 60 60 60
3.1871 -3.6883 -0.1119 60 60 60
0.8761 0.0014 1.8376 60 60 60
-15.8057 2.9251 -0.1595 60 60 60
-8.1712 -11.8761 4.3392 60 60 60
-0.7031 -2.8982 -0.0456 60 60 60
0.8750 0.0013 1.8376 60 60 60
0.5096 6.0798 -0.0211 60 60 60
4.8361 -4.2980 0.9619 60 60 60
-0.2019 8.6667 0.0628 60 60 60
-2.1898 -5.9998 0.2027 60 60 60
-7.3210 5.1267 -0.0538 60 60 60
10.1695 -5.2295 1.8954 60 60 60
-6.1637 -4.2368 2.7354 60 60 60
0.9737 0.0001 1.8399 60 60 60
-3.5453 -11.4821 0.8645 60 60 60
0.3472 -4.4447 -0.1419 60 60 60
0.9175 0.0009 1.8387 60 60 60
25.7768 -21.8138 6.0540 60 60 60
1.6562 8.0988 0.0852 60 60 60
1.5256 0.3431 1.4500 60 60 60
0.9083 0.0010 1.8384 60 60 60
-6.2276 11.8683 1.8847 60 60 60
-8.9282 10.7908 -0.0683 60 60 60
1.4995 4.2665 0.0085 60 60 60
2.6735 4.3960 0.0199 60 60 60
1.1611 -8.1510 -0.1303 60 60 60
11.0605 -6.2908 1.6330 60 60 60
-3.0429 2.8768 0.0019 60 60 60
-1.8734 4.2725 -0.0021 60 60 60
1.0115 3.2445 0.0093 60 60 60
0.6759 4.1598 0.0126 60 60 60
0.9425 0.0006 1.8393 60 60 60
1.5094 -0.2224 1.4682 60 60 60
3.0845 -6.1127 -0.1503 60 60 60
-7.5614 12.4805 4.7698 60 60 60
0.8780 0.0013 1.8377 60 60 60
0.1726 -4.2730 0.0515 60 60 60
0.4077 0.2386 1.5175 60 60 60
-1.2783 -3.7499 0.6886 60 60 60
4.8485 -3.2736 -0.1117 60 60 60
0.9046 0.0010 1.8383 60 60 60
-0.9971 3.6096 0.0143 60 60 60
6.6219 7.9329 2.7354 60 60 60
0.2549 0.1717 1.5175 60 60 60
1.4262 -0.2792 1.4827 60 60 60
-5.1961 14.1727 3.9814 60 60 60
-6.2718 12.0014 0.9032 60 60 60
0.9420 0.0005 1.8393 60 60 60
8.6627 -10.2919 2.0568 60 60 60
-1.4192 -3.6821 0.4706 60 60 60
-6.2719 -2.7865 0.3460 60 60 60
-9.9424 12.6280 0.0418 60 60 60
-4.4300 -3.2963 -0.0281 60 60 60
7.5496 -10.3980 0.9293 60 60 60
-2.5979 11.0079 4.2282 60 60 60
-20.8200 10.8958 1.7401 60 60 60
0.9170 0.0009 1.8387 60 60 60
0.9129 0.0010 1.8386 60 60 60
4.9218 3.2380 0.0184 60 60 60
-12.9347 -12.3036 5.5113 60 60 60
0.9403 0.0006 1.8392 60 60 60
-79.3351 20.4627 -0.1872 60 60 60
0.9338 0.0007 1.8391 60 60 60
0.8767 0.0013 1.8376 60 60 60
2.0386 3.5503 0.0062 60 60 60
-3.0220 -11.5271 1.1375 60 60 60
-5.1702 -11.5953 4.5687 60 60 60
4.9278 -1.2632 -0.0376 60 60 60
0.1160 0.0742 1.5556 60 60 60
-1.7077 10.4949 1.7436 60 60 60
-10.6347 -12.0913 5.5140 60 60 60
-15.7004 17.3030 4.3465 60 60 60
0.3979 -0.4781 1.4864 60 60 60
-2.0007 -5.2325 -0.0555 60 60 60
3.3437 -4.2985 0.1580 60 60 60
-7.8468 4.3914 -0.0545 60 60 60
0.9539 0.0005 1.8395 60 60 60
5.8098 3.4772 0.0181 60 60 60
1.9875 -3.0629 -0.0658 60 60 60
4.1394 8.4687 0.2075 60 60 60
0.7198 3.2838 0.0155 60 60 60
0.9490 0.0005 1.8394 60 60 60
-1.4859 10.3532 2.7305 60 60 60
-6.6751 -1.7439 -0.0324 60 60 60
1.7927 9.2789 2.6848 60 60 60
1.9175 -11.0149 0.4698 60 60 60
-6.3876 12.0736 4.5519 60 60 60
-1.2810 -8.3151 -0.1180 60 60 60
0.9587 0.0004 1.8396 60 60 60
-4.1740 -11.5261 1.1613 60 60 60
0.2433 -0.0020 1.5439 60 60 60
-1.1913 -34.5925 8.3828 60 60 60
-1.1849 -11.2731 1.3707 60 60 60
0.9154 0.0009 1.8386 60 60 60
0.5427 -4.4792 0.3239 60 60 60
0.8997 0.0010 1.8382 60 60 60
5.1093 -10.6588 2.6865 60 60 60
-6.6087 0.4642 0.4102 60 60 60
6.3213 -1.4564 -0.0540 60 60 60
-4.2008 1.6214 0.0029 60 60 60
1.0812 -4.4875 0.1799 60 60 60
-8.7393 -1.9855 -1.5222 60 60 60
-6.9050 0.3423 -0.0275 60 60 60
0.7486 4.1611 0.0100 60 60 60
-0.1326 3.4184 0.0047 60 60 60
0.8685 9.4732 1.8738 60 60 60
-3.0013 -11.7383 1.7006 60 60 60
-6.0007 -4.4305 3.5097 60 60 60
-3.0489 -7.1447 -0.1295 60 60 60
0.4312 -0.4902 1.4932 60 60 60
0.9438 0.0006 1.8393 60 60 60
-0.1843 -3.5294 -0.0776 60 60 60
4.1781 8.4973 2.5545 60 60 60
0.9463 0.0005 1.8393 60 60 60
-9.7867 -12.0172 5.3547 60 60 60
0.9520 0.0004 1.8395 60 60 60
-11.3952 -3.6518 1.7975 60 60 60
0.9471 0.0005 1.8394 60 60 60
13.8738 8.7337 0.5271 60 60 60
-2.4255 7.1553 -0.0465 60 60 60
0.0609 4.1577 0.0073 60 60 60
1.4632 0.1296 1.4818 60 60 60
0.9400 0.0006 1.8392 60 60 60
-6.1554 -2.5540 0.0179 60 60 60
2.4635 -3.8547 -0.1136 60 60 60
-7.8932 4.3516 -0.0581 60 60 60
-13.1046 6.3824 -0.0179 60 60 60
-1.6773 -2.7681 -0.0430 60 60 60
2.2328 -5.1325 -0.1776 60 60 60
3.6503 8.6354 0.4486 60 60 60
-0.1254 10.1950 3.3661 60 60 60
1.3812 0.1583 1.4897 60 60 60
-2.5782 -3.2605 1.3203 60 60 60
4.8653 8.2744 2.1005 60 60 60
-4.9008 2.3780 0.0068 60 60 60
-1.5150 9.0703 -0.0134 60 60 60
-4.0599 2.8868 -0.0013 60 60 60
1.5193 -0.1727 1.4696 60 60 60
4.2286 -14.1092 3.0020 60 60 60
2.9250 -3.5417 -0.1032 60 60 60
14.4188 -11.7839 1.1872 60 60 60
0.9379 0.0006 1.8392 60 60 60
-6.1482 0.2679 -0.0225 60 60 60
0.9441 0.0005 1.8393 60 60 60
0.0097 -3.1360 -0.0558 60 60 60
-14.1071 8.7449 0.9378 60 60 60
-2.8126 -11.4037 3.9581 60 60 60
-2.3992 -7.3048 -0.1223 60 60 60
3.3620 8.7425 1.5298 60 60 60
1.5457 3.9858 0.0060 60 60 60
-3.0337 -11.4287 4.2773 60 60 60
1.4455 0.2039 1.4798 60 60 60
0.5282 -0.4651 1.4967 60 60 60
-6.2569 12.0104 1.2292 60 60 60
0.4615 -0.0208 1.6080 60 60 60
5.7297 -10.4265 0.2433 60 60 60
5.4602 7.9416 2.9315 60 60 60
9.5907 -28.9099 7.0429 60 60 60
-23.9388 17.5623 6.6262 60 60 60
2.1350 -3.7203 -0.1000 60 60 60
-6.3260 -2.7603 0.1494 60 60 60
-4.4007 11.3778 1.8294 60 60 60
0.3975 -0.4472 1.4969 60 60 60
0.1851 0.0632 1.5178 60 60 60
0.9124 0.0009 1.8385 60 60 60
0.4276 -0.3889 1.5083 60 60 60
12.2288 8.5903 1.3353 60 60 60
1.8255 -0.3609 1.3362 60 60 60
9.4475 9.4125 0.2709 60 60 60
-0.5735 -8.2916 -0.1104 60 60 60
-0.9706 -11.3999 0.2710 60 60 60
0.8750 0.0014 1.8376 60 60 60
-9.6529 -12.0063 5.3300 60 60 60
5.4109 -1.8974 -0.0602 60 60 60
-0.9664 -3.5293 -0.0778 60 60 60
3.4569 3.8279 0.0255 60 60 60
-10.8083 9.4973 -0.0637 60 60 60
-0.6657 -3.9540 -0.1047 60 60 60
1.3123 0.3238 1.5008 60 60 60
-5.3865 7.0234 -0.0768 60 60 60
-3.2993 -2.7294 -0.0498 60 60 60
4.5432 2.5447 0.0220 60 60 60
0.5812 -11.1761 0.7805 60 60 60
2.4267 8.8510 0.0868 60 60 60
9.9484 8.3737 1.7264 60 60 60
0.3310 4.1787 0.0056 60 60 60
1.4114 -0.1232 1.4824 60 60 60
-12.7688 -3.3768 1.1468 60 60 60
-1.8983 5.7506 -0.0047 60 60 60
1.0289 -6.8197 -0.1446 60 60 60
5.4849 -7.8929 -0.1227 60 60 60
0.9436 0.0005 1.8393 60 60 60
2.2476 -3.3953 -0.0862 60 60 60
1.7737 -3.8739 -0.1042 60 60 60
-8.1515 -11.9342 2.9258 60 60 60
1.8739 -11.0936 2.8052 60 60 60
0.9021 0.0011 1.8383 60 60 60
0.0266 -0.2043 1.4944 60 60 60
-11.9903 7.7791 -0.0107 60 60 60
0.9300 0.0007 1.8390 60 60 60
-4.8695 -1.4015 -0.0435 60 60 60
-9.2595 -12.0491 3.3826 60 60 60
4.2830 8.4432 0.8462 60 60 60
-3.3573 -11.5363 0.2770 60 60 60
0.9783 0.0001 1.8400 60 60 60
-26.6744 -14.5589 3.7976 60 60 60
-4.1977 -11.5081 2.6324 60 60 60
12.2401 8.5965 3.3321 60 60 60
0.3622 -0.1673 1.5331 60 60 60
0.9376 0.0006 1.8392 60 60 60
0.1797 0.0460 1.5372 60 60 60
0.8686 0.0014 1.8374 60 60 60
0.3671 -0.2195 1.5267 60 60 60
-1.8298 3.4925 0.0103 60 60 60
-5.2211 -4.3002 0.3433 60 60 60
-1.1922 5.9724 -0.0161 60 60 60
2.5675 0.5824 0.9970 60 60 60
-18.5394 -11.0030 3.2267 60 60 60
9.2398 -28.9427 7.0467 60 60 60
0.4136 -4.5164 1.4256 60 60 60
0.5026 -0.4955 1.4945 60 60 60
0.1998 -0.2283 1.5114 60 60 60
2.3308 7.6643 -0.0683 60 60 60
-0.0020 9.7813 1.6863 60 60 60
-5.7093 2.0236 0.0046 60 60 60
0.8842 -11.1926 2.0711 60 60 60
19.9417 -18.4624 -0.3244 60 60 60
2.8056 -8.1596 -0.0575 60 60 60
0.5647 9.4540 2.3296 60 60 60
0.1595 0.3657 1.4924 60 60 60
2.9960 -4.2669 -0.1439 60 60 60
-7.0549 7.4772 -0.0856 60 60 60
0.3314 3.2858 0.0077 60 60 60
0.1367 -0.0342 1.5850 60 60 60
-3.6546 10.9093 0.4231 60 60 60
-3.4964 10.9807 2.3548 60 60 60
-1.4012 10.3246 2.9716 60 60 60
1.3920 0.4061 1.5316 60 60 60
4.8151 -2.5710 -0.0845 60 60 60
24.1850 -26.6468 6.4939 60 60 60
16.7815 -16.3187 0.0018 60 60 60
-8.0132 -11.8428 5.0322 60 60 60
1.7139 -10.9561 0.2264 60 60 60
0.9135 0.0010 1.8386 60 60 60
5.4389 -4.3401 1.7645 60 60 60
-0.4399 10.2957 3.4007 60 60 60
0.3681 -3.8616 -0.1037 60 60 60
-4.2290 -4.3753 1.4344 60 60 60
1.3091 0.3255 1.5019 60 60 60
-0.2318 5.1615 -0.0114 60 60 60
0.0229 -0.1347 1.4980 60 60 60
2.2734 9.1090 2.0060 60 60 60
-4.1219 -3.1046 -0.0715 60 60 60
0.2347 -0.4074 1.4918 60 60 60
-27.2185 18.6049 5.5663 60 60 60
0.6247 0.5057 1.4990 60 60 60
0.9148 0.0010 1.8386 60 60 60
0.1893 -0.1949 1.5112 60 60 60
-2.1974 -3.5122 1.8642 60 60 60
-1.8373 9.2000 -0.0432 60 60 60
-2.0398 -5.7714 -0.0559 60 60 60
0.9484 0.0005 1.8394 60 60 60
6.0052 -2.8134 -0.1015 60 60 60
-1.3405 10.3814 0.9857 60 60 60
1.4709 -0.0237 1.5235 60 60 60
2.1113 3.0675 0.0069 60 60 60
14.3367 -11.0507 0.7877 60 60 60
2.6381 8.9833 0.2669 60 60 60
1.2402 -0.4522 1.4968 60 60 60
0.2434 9.6694 2.8094 60 60 60
-10.5129 -0.2546 1.2997 60 60 60
-6.7081 -11.7313 4.8111 60 60 60
-6.9084 12.1190 2.9153 60 60 60
3.3488 -8.2874 -0.1399 60 60 60
0.9579 0.0004 1.8396 60 60 60
-6.2120 -11.6819 4.3965 60 60 60
4.9871 1.5407 0.0243 60 60 60
0.5511 9.4079 2.9914 60 60 60
0.9005 0.0011 1.8382 60 60 60
6.9180 -10.4480 0.9717 60 60 60
-2.6270 -3.1810 0.6356 60 60 60
8.1788 -10.3054 3.8458 60 60 60
8.6224 9.3266 2.0680 60 60 60
2.0057 4.3870 0.0139 60 60 60
1.0396 3.8569 0.0069 60 60 60
-3.3682 -4.6761 0.3713 60 60 60
1.5232 -11.2189 3.6281 60 60 60
0.8937 0.0011 1.8381 60 60 60
4.8643 8.2599 1.2426 60 60 60
2.5630 3.2339 0.0169 60 60 60
4.0121 8.5432 2.3481 60 60 60
0.9338 0.0007 1.8391 60 60 60
0.5913 6.6390 -0.0280 60 60 60
0.9468 0.0005 1.8394 60 60 60
0.9420 0.0005 1.8393 60 60 60
4.5029 -10.9063 2.9873 60 60 60
0.3100 0.1776 1.5212 60 60 60
-21.1150 16.6030 2.9067 60 60 60
7.9557 -4.3201 0.9208 60 60 60
2.3255 9.0820 1.1451 60 60 60
1.4563 -4.5887 1.8017 60 60 60
5.5537 -0.0643 0.0147 60 60 60
1.6053 9.3384 3.1404 60 60 60
3.9383 -4.3622 1.1896 60 60 60
0.8685 0.0014 1.8374 60 60 60
-2.3755 7.1589 -0.0443 60 60 60
3.4581 -4.8991 -0.1765 60 60 60
-1.3546 6.5652 -0.0228 60 60 60
-4.9298 6.0021 -0.0573 60 60 60
4.3595 -10.8393 3.5184 60 60 60
-6.1409 3.1803 -0.0317 60 60 60
-2.0790 8.2173 -0.0653 60 60 60
1.4307 0.3484 1.4727 60 60 60
0.9151 0.0009 1.8386 60 60 60
-6.9664 -11.8900 0.1682 60 60 60
6.6878 -10.4740 3.5067 60 60 60
-9.8054 7.3039 1.4487 60 60 60
-7.5778 -1.1812 1.2272 60 60 60
1.1654 9.4615 2.0633 60 60 60
1.1891 -3.3483 -0.0805 60 60 60
3.4521 8.7048 0.4570 60 60 60
-17.4878 1.0768 0.5428 60 60 60
-2.5137 -2.8878 0.0135 60 60 60
-3.0503 -11.5512 0.5650 60 60 60
5.2297 -0.9725 -0.0159 60 60 60
0.9550 0.0004 1.8395 60 60 60
1.4515 0.0216 1.5158 60 60 60
-3.0233 -3.6843 -0.0775 60 60 60
2.2508 9.1225 1.5783 60 60 60
0.8956 0.0011 1.8381 60 60 60
10.1572 -6.6772 0.5935 60 60 60
6.2820 -10.4988 2.3892 60 60 60
6.3779 -10.5070 2.9437 60 60 60
-13.0434 -7.4350 -0.1272 60 60 60
2.6177 7.5060 -0.0600 60 60 60
3.5591 -8.2662 0.0525 60 60 60
1.4318 -0.3490 1.5200 60 60 60
0.8796 0.0013 1.8377 60 60 60
0.9547 0.0004 1.8395 60 60 60
-5.8410 3.8794 -0.0587 60 60 60
7.7234 8.1520 3.2859 60 60 60
-0.6306 -3.3891 -0.0669 60 60 60
-0.2640 3.1735 0.0100 60 60 60
0.9428 0.0005 1.8393 60 60 60
4.4499 6.3405 -0.0511 60 60 60
8.2871 9.2902 1.5173 60 60 60
-4.3550 4.3844 -0.0322 60 60 60
3.3191 -4.0000 -0.1298 60 60 60
0.9514 -3.1862 -0.0679 60 60 60
5.1223 -10.6470 3.2246 60 60 60
5.0185 6.8476 -0.0518 60 60 60
0.9542 0.4366 1.5801 60 60 60
0.9533 0.0005 1.8395 60 60 60
3.9839 7.9933 0.0876 60 60 60
5.9215 7.7709 2.9232 60 60 60
0.9522 0.0005 1.8395 60 60 60
-0.7046 -3.9608 0.3508 60 60 60
1.3943 -0.1847 1.4842 60 60 60
-1.2321 -4.4048 -0.1101 60 60 60
4.2049 -4.3130 0.9072 60 60 60
-1.8120 -11.3299 1.3907 60 60 60
0.8909 9.4546 2.0755 60 60 60
24.5140 -25.8484 4.7734 60 60 60
14.7236 8.8278 0.8390 60 60 60
-0.0897 4.7750 0.0001 60 60 60
-15.5442 14.8822 0.5747 60 60 60
0.2301 -3.1754 -0.0600 60 60 60
6.1658 -7.7591 0.4765 60 60 60
-6.5873 7.7230 -0.0726 60 60 60
-8.3683 -11.9579 3.6533 60 60 60
3.5197 3.0163 0.0197 60 60 60
0.8779 0.4456 1.5718 60 60 60
0.6965 -11.2476 2.3446 60 60 60
2.6159 -0.3545 1.0026 60 60 60
-0.4662 -4.0090 0.2411 60 60 60
1.3305 0.5016 1.4664 60 60 60
-4.8691 11.2935 0.0592 60 60 60
-6.7843 0.1806 0.9322 60 60 60
6.4394 -3.3537 -0.1441 60 60 60
25.4332 -22.7867 6.9317 60 60 60
0.9452 0.0005 1.8393 60 60 60
1.5201 0.3454 1.4519 60 60 60
4.5205 7.5780 2.8673 60 60 60
-5.3182 -11.6124 3.0195 60 60 60
1.5194 -0.0298 1.5351 60 60 60
0.8429 9.4503 0.3046 60 60 60
2.6988 7.4574 -0.0574 60 60 60
27.2096 -20.5875 2.1357 60 60 60
1.4131 0.4266 1.5378 60 60 60
-7.8947 12.5632 3.7267 60 60 60
4.8966 7.3784 0.0754 60 60 60
-0.3623 -11.3310 0.2641 60 60 60
-6.6056 10.9774 0.0375 60 60 60
1.2552 -7.2968 -0.1131 60 60 60
1.2556 0.3896 1.5033 60 60 60
1.4736 -0.0552 1.4851 60 60 60
1.8849 -11.1268 3.0718 60 60 60
1.5919 -7.2651 -0.1276 60 60 60
-1.9467 -11.4475 0.2820 60 60 60
1.4143 0.1538 1.4884 60 60 60
4.4866 8.3998 1.6891 60 60 60
0.5639 -3.2000 -0.0632 60 60 60
0.9024 -11.2076 2.5946 60 60 60
9.1769 6.1331 0.0083 60 60 60
-1.2729 -7.5470 -0.1348 60 60 60
-3.4430 11.0521 1.2445 60 60 60
0.9574 0.0004 1.8396 60 60 60
0.5559 9.5671 3.2368 60 60 60
6.1981 7.8766 2.0537 60 60 60
-5.9759 1.1835 -0.0049 60 60 60
3.7806 8.6267 1.7219 60 60 60
2.2879 -3.1259 -0.0745 60 60 60
3.1276 3.0908 0.0112 60 60 60
-0.6683 -2.9127 -0.0452 60 60 60
-3.7096 -15.3553 2.0112 60 60 60
9.0377 -10.2292 3.5788 60 60 60
12.9848 8.5496 0.6066 60 60 60
0.0441 -3.5748 -0.0817 60 60 60
3.4232 -6.5621 -0.1458 60 60 60
0.7611 9.4816 0.9933 60 60 60
6.7570 7.9435 2.5065 60 60 60
0.4301 -0.3652 1.5171 60 60 60
-4.7850 11.3058 3.0292 60 60 60
0.2467 -0.0220 1.5454 60 60 60
1.4586 0.1772 1.4773 60 60 60
0.1078 0.0745 1.5081 60 60 60
1.3075 0.4242 1.4850 60 60 60
5.1722 0.8142 0.0206 60 60 60
-2.7301 4.2354 -0.0032 60 60 60
-0.7576 10.1141 2.6695 60 60 60
1.2256 0.5451 1.4873 60 60 60
0.3930 -0.4560 1.4924 60 60 60
2.9964 8.8864 3.0428 60 60 60
-0.4075 -11.2440 0.5472 60 60 60
-3.6537 -11.4728 2.0189 60 60 60
-17.9509 4.5557 0.0029 60 60 60
0.5828 3.1083 0.0163 60 60 60
11.0033 7.9121 0.1843 60 60 60
-2.6029 -7.2950 -0.1327 60 60 60
10.0507 -9.0062 -0.4218 60 60 60
-5.6206 -11.6202 4.6349 60 60 60
0.9013 0.0011 1.8383 60 60 60
1.0541 -3.3621 -0.0753 60 60 60
0.4726 9.5712 0.0863 60 60 60
1.8364 -7.1843 -0.1254 60 60 60
5.9437 -10.5853 2.3995 60 60 60
-4.3776 11.0255 0.6905 60 60 60
1.2216 -0.4438 1.4904 60 60 60
0.3048 0.1396 1.5240 60 60 60
-3.0496 -5.5480 0.3965 60 60 60
9.9494 8.5099 1.1498 60 60 60
0.9422 0.0005 1.8393 60 60 60
-10.2026 -12.0558 5.4327 60 60 60
-8.7812 12.7207 2.3273 60 60 60
4.3178 -8.1262 -0.0084 60 60 60
0.9154 0.0009 1.8386 60 60 60
1.6119 0.1609 1.4383 60 60 60
-7.1542 -11.9729 2.1787 60 60 60
2.0578 9.1683 0.9379 60 60 60
0.9075 0.0011 1.8384 60 60 60
13.8430 8.7503 1.9915 60 60 60
0.9517 0.0005 1.8395 60 60 60
-29.6521 19.3071 8.4336 60 60 60
-8.3570 0.0061 1.1852 60 60 60
-2.8016 -3.2098 1.7726 60 60 60
1.4675 -0.0440 1.4892 60 60 60
0.1061 -3.5861 -0.0837 60 60 60
0.2796 0.4215 1.4990 60 60 60
0.9702 0.0002 1.8399 60 60 60
0.9357 0.0006 1.8391 60 60 60
0.3249 0.2048 1.5234 60 60 60
8.9776 -10.2608 0.5245 60 60 60
-2.3697 -4.2448 -0.1020 60 60 60
-9.0567 12.7980 2.7185 60 60 60
11.8449 8.5831 3.6334 60 60 60
-2.8513 -3.2165 1.8891 60 60 60
2.5102 3.2726 0.0151 60 60 60
0.9449 0.0006 1.8393 60 60 60
0.9155 0.4537 1.5768 60 60 60
-4.6121 11.4691 4.5491 60 60 60
2.4990 -11.0130 0.4350 60 60 60
1.3912 -0.5326 1.4638 60 60 60
1.4406 0.3219 1.4749 60 60 60
7.2658 -10.4151 2.3726 60 60 60
-0.8825 10.0378 0.2799 60 60 60
0.9075 0.0010 1.8384 60 60 60
2.4095 4.1834 0.0206 60 60 60
2.7266 7.7113 0.0764 60 60 60
3.4346 3.8432 0.0266 60 60 60
1.3419 0.3881 1.5199 60 60 60
1.2562 -0.4408 1.4950 60 60 60
26.3770 -20.1323 4.4049 60 60 60
14.3668 -11.1994 1.1911 60 60 60
0.1099 0.0367 1.5976 60 60 60
0.4277 7.3953 -0.0526 60 60 60
-1.5413 5.3224 -0.0053 60 60 60
1.9117 2.9864 -0.0006 60 60 60
12.3527 -8.7927 -0.4076 60 60 60
0.8034 4.7283 0.0032 60 60 60
-13.2883 -3.3287 1.4648 60 60 60
-2.0657 3.3337 0.0084 60 60 60
-3.1667 -4.6781 0.9964 60 60 60
-8.7610 2.7247 -0.0754 60 60 60
-2.0344 -3.1555 -0.0580 60 60 60
0.3297 0.3700 1.5088 60 60 60
0.5057 -0.4396 1.5000 60 60 60
1.1544 4.3489 0.0089 60 60 60
4.9923 -0.6671 -0.0116 60 60 60
7.9053 7.6698 0.0595 60 60 60
1.3426 4.6193 0.0067 60 60 60
0.0430 -11.2986 2.3785 60 60 60
-2.5422 4.3618 -0.0039 60 60 60
-2.3971 -3.3544 1.4324 60 60 60
-2.7244 -9.3109 0.3408 60 60 60
0.7933 -4.5887 1.0770 60 60 60
0.8785 -3.1934 -0.0676 60 60 60
0.9550 0.0004 1.8395 60 60 60
-4.4641 -11.4964 4.1506 60 60 60
5.5833 -10.6292 2.1381 60 60 60
4.6059 1.7664 0.0270 60 60 60
-24.8947 -19.3955 8.3222 60 60 60
1.3290 -0.3533 1.4945 60 60 60
-0.1106 -0.1664 1.4761 60 60 60
-6.3770 -3.5262 0.4514 60 60 60
0.0582 8.6170 0.0674 60 60 60
-8.8080 2.2024 -0.0550 60 60 60
1.7288 -3.4218 -0.0954 60 60 60
-3.0793 -4.9933 -0.1377 60 60 60
0.9631 0.0003 1.8397 60 60 60
-8.6855 -1.9753 -0.0323 60 60 60
0.0838 -0.0812 1.4995 60 60 60
-10.4758 -12.1523 3.8928 60 60 60
0.0910 -0.1002 1.5015 60 60 60
1.4564 -0.0331 1.5138 60 60 60
1.7882 -0.4476 1.3387 60 60 60
0.9384 -4.3921 -0.1348 60 60 60
-31.7102 20.0921 2.5138 60 60 60
6.4478 7.8906 0.4646 60 60 60
1.2831 0.5622 1.4605 60 60 60
3.2524 6.3095 -0.0346 60 60 60
5.3863 -10.6348 2.6814 60 60 60
1.3922 0.1214 1.4893 60 60 60
0.5808 9.3929 2.5451 60 60 60
-3.0653 -9.3763 0.3255 60 60 60
0.9403 0.0005 1.8392 60 60 60
1.3201 0.4455 1.4911 60 60 60
3.5359 -10.9266 0.3738 60 60 60
-0.5779 8.7598 0.0491 60 60 60
5.7004 7.8763 0.3274 60 60 60
-1.6076 -3.6303 1.0080 60 60 60
2.0452 9.1725 0.7208 60 60 60
-3.1562 -11.4806 1.1438 60 60 60
0.3973 -3.1887 -0.0596 60 60 60
-5.1314 -11.6054 3.3116 60 60 60
0.9395 0.0006 1.8392 60 60 60
1.5723 9.3242 0.7311 60 60 60
2.8386 4.2880 0.0231 60 60 60
2.2722 -3.9699 -0.1213 60 60 60
-4.4764 11.0617 0.6863 60 60 60
-1.5078 6.5150 -0.0171 60 60 60
0.9449 0.0005 1.8393 60 60 60
2.6287 -0.3143 0.9998 60 60 60
-11.1319 -12.2328 2.7609 60 60 60
-27.9636 -5.3626 8.0331 60 60 60
-2.6173 -3.3122 1.8806 60 60 60
0.3914 -4.3667 0.1335 60 60 60
0.8656 0.0014 1.8373 60 60 60
-16.3455 -3.5232 1.3936 60 60 60
-0.3604 6.7008 -0.0333 60 60 60
-14.8558 14.6550 1.6069 60 60 60
8.7971 -29.3115 7.1113 60 60 60
1.3116 0.3875 1.5148 60 60 60
-1.6795 -6.2595 -0.1663 60 60 60
0.4855 0.4978 1.5008 60 60 60
0.8913 0.0011 1.8380 60 60 60
-0.7299 -3.3482 -0.0641 60 60 60
7.6277 4.2684 0.0169 60 60 60
-6.3610 9.5925 -0.0589 60 60 60
-7.8065 4.4359 -0.0526 60 60 60
-7.1413 12.2899 0.8782 60 60 60
1.3994 -0.1398 1.4881 60 60 60
0.8972 0.0012 1.8381 60 60 60
-1.0444 4.2273 0.0042 60 60 60
-3.8643 -16.4261 0.8186 60 60 60
0.9571 0.0003 1.8396 60 60 60
1.7142 9.2739 1.3829 60 60 60
-3.5851 -4.5997 1.1308 60 60 60
0.8829 9.4446 1.2120 60 60 60
-8.3249 -0.3102 1.6178 60 60 60
-1.0814 -11.3026 0.5601 60 60 60
-7.1158 -0.7875 1.0750 60 60 60
-6.0015 -11.6540 4.6946 60 60 60
2.6342 8.9847 1.1336 60 60 60
-6.1101 0.5913 -0.0178 60 60 60
0.4893 0.3755 1.5105 60 60 60
0.8913 0.0012 1.8380 60 60 60
1.7798 9.2815 2.4674 60 60 60
2.1937 -4.5160 1.3285 60 60 60
1.7501 3.6572 0.0118 60 60 60
8.8135 8.9723 2.6097 60 60 60
-17.0346 0.6421 1.4133 60 60 60
1.3975 0.1662 1.4960 60 60 60
0.9078 0.0011 1.8384 60 60 60
-0.8465 3.1792 0.0084 60 60 60
-1.3745 10.3782 1.4831 60 60 60
3.7204 -14.1382 3.0180 60 60 60
-0.5492 4.3593 0.0059 60 60 60
-6.0275 11.9801 4.8292 60 60 60
3.2364 8.7904 1.9587 60 60 60
5.5981 2.8591 0.0214 60 60 60
2.5866 -2.9273 -0.0700 60 60 60
0.7417 -5.4022 -0.1382 60 60 60
0.5859 -5.4875 -0.0204 60 60 60
25.6792 -22.2955 3.7486 60 60 60
-0.8033 8.8407 0.0343 60 60 60
0.8715 0.0014 1.8375 60 60 60
4.2725 -4.3683 1.8005 60 60 60
3.8558 3.0478 0.0157 60 60 60
1.3329 -8.6654 -0.0513 60 60 60
0.9075 0.0010 1.8384 60 60 60
1.6081 -4.5643 -0.1445 60 60 60
3.2048 3.3076 0.0230 60 60 60
0.8727 3.2816 0.0124 60 60 60
4.5926 -5.5235 0.2318 60 60 60
2.2125 9.1198 0.9331 60 60 60
-8.3082 -0.9561 1.6133 60 60 60
3.3046 -4.0286 -0.1357 60 60 60
3.0040 3.4805 0.0202 60 60 60
-0.5460 -6.3481 -0.1412 60 60 60
7.4408 -10.3732 3.5204 60 60 60
5.1607 7.4057 3.0604 60 60 60
1.3740 -0.2347 1.4862 60 60 60
-4.8626 11.1888 0.6710 60 60 60
4.5936 3.6414 0.0288 60 60 60
-7.6551 12.4599 2.9834 60 60 60
5.5654 -0.8189 -0.0143 60 60 60
-45.8643 27.1029 6.6111 60 60 60
-4.4032 -2.6780 -0.0703 60 60 60
5.6200 7.7685 0.1316 60 60 60
25.4164 -23.1072 3.7919 60 60 60
1.3964 -0.1455 1.4892 60 60 60
1.8192 5.6780 0.0027 60 60 60
5.1024 1.1429 0.0224 60 60 60
8.8874 6.5196 0.0216 60 60 60
2.4506 9.0557 2.4270 60 60 60
1.5224 -0.1496 1.4703 60 60 60
4.7252 7.5278 3.0643 60 60 60
-0.0368 -4.1821 0.0830 60 60 60
-2.6738 -3.1488 0.6340 60 60 60
-7.4108 2.5497 -0.0352 60 60 60
0.8486 -4.5147 0.1831 60 60 60
5.4990 -4.3049 1.4691 60 60 60
4.8941 -8.0196 -0.0629 60 60 60
0.9449 0.0005 1.8393 60 60 60
0.9563 0.0004 1.8396 60 60 60
2.7290 3.6787 0.0192 60 60 60
8.1115 9.2683 1.7987 60 60 60
-6.7140 -0.7939 0.9315 60 60 60
1.6936 3.4525 0.0119 60 60 60
0.9416 -0.4540 1.5644 60 60 60
0.9544 0.0004 1.8395 60 60 60
-0.0617 -3.5624 -0.0834 60 60 60
-2.7302 10.9815 4.2376 60 60 60
-2.2807 -6.6165 -0.1317 60 60 60
-0.6421 3.7399 0.0131 60 60 60
4.0978 -3.1343 -0.0938 60 60 60
0.9465 0.0005 1.8393 60 60 60
-3.8070 -2.7251 -0.0588 60 60 60
-4.9803 14.8411 4.0358 60 60 60
0.3543 -0.3778 1.5021 60 60 60
10.8660 8.4592 2.3128 60 60 60
-2.1972 4.0671 0.0055 60 60 60
-5.7365 -2.5332 -0.0644 60 60 60
-1.6458 -4.1739 -0.0865 60 60 60
1.3391 0.3719 1.5260 60 60 60
0.9739 0.0002 1.8399 60 60 60
0.8691 0.0014 1.8374 60 60 60
0.9495 0.0005 1.8394 60 60 60
1.3944 0.0077 1.5159 60 60 60
5.7745 -4.7979 0.1342 60 60 60
6.1044 -10.5710 2.9485 60 60 60
-1.7529 3.1979 0.0133 60 60 60
0.0924 9.7060 1.2282 60 60 60
1.0539 6.5164 -0.0291 60 60 60
5.5335 -10.6232 2.9522 60 60 60
0.2147 -8.8839 -0.0483 60 60 60
-4.5850 -11.5356 3.5615 60 60 60
-1.1759 -4.1044 -0.1145 60 60 60
-19.0485 15.8778 1.0245 60 60 60
-4.6522 11.2631 2.1330 60 60 60
-3.7901 2.4451 0.0093 60 60 60
0.1502 -0.0018 1.5894 60 60 60
24.8696 -24.7833 3.8864 60 60 60
9.6820 -5.4543 0.2045 60 60 60
2.0831 9.1543 0.5004 60 60 60
-7.3980 7.2765 -0.0954 60 60 60
-5.9039 1.4136 0.0009 60 60 60
-0.1149 -0.1487 1.4757 60 60 60
-6.4924 -0.1000 0.2529 60 60 60
0.5397 0.4299 1.5075 60 60 60
-6.0427 -1.0210 -0.0194 60 60 60
0.9861 3.4313 0.0107 60 60 60
0.9544 0.0005 1.8395 60 60 60
-24.4181 -8.1494 1.1242 60 60 60
0.9238 0.0008 1.8389 60 60 60
27.3677 -16.9789 4.9832 60 60 60
-12.2521 13.8652 6.1292 60 60 60
1.4716 0.0683 1.5200 60 60 60
-1.4439 4.0558 0.0096 60 60 60
5.7882 5.9530 -0.0302 60 60 60
-5.1123 -11.6148 1.4749 60 60 60
0.9574 0.0003 1.8396 60 60 60
1.4465 0.3116 1.4747 60 60 60
0.9070 0.0010 1.8384 60 60 60
-8.2033 5.3996 0.0324 60 60 60
0.4192 0.2262 1.5261 60 60 60
3.4014 8.7181 0.4596 60 60 60
1.3942 -0.1547 1.4893 60 60 60
1.3414 0.4638 1.5150 60 60 60
-0.1429 -4.0680 -0.1077 60 60 60
-2.8153 -35.8559 6.1382 60 60 60
7.7633 -4.3240 0.1661 60 60 60
0.8707 0.0014 1.8375 60 60 60
0.1384 5.1751 -0.0092 60 60 60
0.7554 -11.2134 2.0775 60 60 60
-3.2315 -9.1733 -0.1303 60 60 60
1.3500 -0.4307 1.4759 60 60 60
3.9923 8.5403 1.0745 60 60 60
-1.4065 10.2633 0.5009 60 60 60
-13.7690 14.3541 5.4722 60 60 60
7.4334 8.1240 2.7738 60 60 60
0.9026 0.0011 1.8383 60 60 60
1.4098 -0.1394 1.4814 60 60 60
0.6889 -4.6415 1.1830 60 60 60
6.0760 7.8589 0.2835 60 60 60
0.8951 0.0011 1.8381 60 60 60
-0.0382 -4.4008 -0.1305 60 60 60
1.5403 0.0918 1.5019 60 60 60
5.1544 -4.3197 1.4905 60 60 60
3.2106 -8.3248 0.0773 60 60 60
0.2476 0.3299 1.5086 60 60 60
3.8667 8.6152 3.2159 60 60 60
-6.4749 -0.2691 0.2551 60 60 60
-8.4568 4.9791 0.0398 60 60 60
-3.3850 -9.5297 0.0448 60 60 60
0.9422 0.0006 1.8393 60 60 60
-1.3819 -2.9852 -0.0460 60 60 60
6.1070 -4.1531 -0.1774 60 60 60
-17.5106 -1.2587 1.8238 60 60 60
-4.1103 -2.2827 -0.0690 60 60 60
-16.6630 14.4454 0.0409 60 60 60
1.7370 4.1736 0.0160 60 60 60
3.8161 3.0796 0.0198 60 60 60
4.4554 -3.9087 -0.1445 60 60 60
-11.9410 14.0099 3.3678 60 60 60
1.2240 3.3968 0.0055 60 60 60
-4.7971 1.2145 -0.0009 60 60 60
-13.5221 14.2712 2.5501 60 60 60
1.4727 9.4040 3.6060 60 60 60
6.1511 -2.2801 -0.0784 60 60 60
4.2653 3.0002 0.0144 60 60 60
-9.9319 13.2614 4.8091 60 60 60
5.4152 -21.5987 2.0886 60 60 60
0.9606 0.0003 1.8397 60 60 60
3.5901 -14.1897 1.3431 60 60 60
0.9661 0.0002 1.8398 60 60 60
0.1382 9.6890 1.0003 60 60 60
