ply
format ascii 1.0
element vertex 1522
property float x
property float y
property float z
property uchar red
property uchar green
property uchar blue
end_header
0.9148 3.9330 -0.0107 60 60 60
9.2052 4.9655 0.2662 60 60 60
5.4886 2.6553 0.0086 60 60 60
1.1728 -0.3362 1.5105 60 60 60
3.4303 -4.2014 0.0529 60 60 60
-19.1556 -0.9523 -0.0148 60 60 60
-19.2129 3.9888 1.8753 60 60 60
3.1859 5.6393 0.3405 60 60 60
0.6522 -0.0011 1.8368 60 60 60
-0.4071 -3.8881 0.0334 60 60 60
4.2275 2.1407 0.0155 60 60 60
0.8201 -0.0005 1.8389 60 60 60
0.8820 10.1418 0.7173 60 60 60
-26.4142 2.9723 -0.0366 60 60 60
0.7598 9.9947 0.4990 60 60 60
5.7591 -10.7822 0.8193 60 60 60
3.3734 -20.1198 3.5465 60 60 60
0.8287 11.5272 4.0779 60 60 60
-20.8526 15.0209 5.5570 60 60 60
0.0449 -0.0647 1.5209 60 60 60
-0.9954 -6.6527 0.0388 60 60 60
68.0248 -45.1960 9.3793 60 60 60
3.6325 -4.0384 0.0552 60 60 60
1.9828 -3.4608 0.0391 60 60 60
-1.5671 2.7063 -0.0134 60 60 60
0.9261 -0.0001 1.8400 60 60 60
-6.0985 1.3963 -0.0085 60 60 60
-8.2719 -8.1388 0.8740 60 60 60
-64.2962 23.2249 8.4086 60 60 60
-0.7414 2.9955 -0.0092 60 60 60
2.7719 -8.7364 0.0444 60 60 60
2.1701 4.2004 0.1948 60 60 60
4.8538 1.2971 0.0225 60 60 60
1.0741 -0.5138 1.4832 60 60 60
3.1208 5.1813 0.3012 60 60 60
-6.3495 13.0165 3.1368 60 60 60
0.7245 -0.0009 1.8377 60 60 60
1.1331 0.4691 1.5106 60 60 60
0.1725 -2.9921 0.0223 60 60 60
-8.4335 -18.2573 3.3867 60 60 60
20.6933 16.3911 0.8435 60 60 60
0.8647 -0.0003 1.8394 60 60 60
1.2363 -18.6757 3.8994 60 60 60
-1.1142 -6.6342 0.0383 60 60 60
0.8428 -0.0004 1.8391 60 60 60
1.4418 4.4228 0.2070 60 60 60
-46.1776 -2.4993 0.7715 60 60 60
53.5658 -41.0773 8.1087 60 60 60
8.8908 9.0592 0.5460 60 60 60
-14.4625 17.6006 3.9534 60 60 60
-3.5421 -2.3510 0.0038 60 60 60
0.8683 -0.0003 1.8394 60 60 60
-42.3676 -14.8528 10.3384 60 60 60
1.8881 2.9922 -0.0024 60 60 60
0.1360 -0.0325 1.5568 60 60 60
-6.9079 -3.4459 0.0060 60 60 60
1.0508 -0.4887 1.4850 60 60 60
1.0092 -22.2872 -0.3815 60 60 60
4.4316 -1.6757 0.0181 60 60 60
57.5242 -41.0772 10.0262 60 60 60
-15.7804 5.0302 0.2464 60 60 60
0.8471 -0.0004 1.8392 60 60 60
-7.6817 16.8143 4.3611 60 60 60
5.9215 -3.5540 0.0317 60 60 60
-10.1059 12.5334 1.4030 60 60 60
19.4845 18.2928 2.0954 60 60 60
1.2412 -0.3579 1.5254 60 60 60
9.9534 12.8217 2.7939 60 60 60
-4.6927 2.0491 -0.0042 60 60 60
0.8785 -0.0002 1.8395 60 60 60
-1.7334 -2.7335 0.0176 60 60 60
-1.8198 3.0987 -0.0119 60 60 60
-6.4436 -5.8581 0.0018 60 60 60
-4.1222 7.3737 0.3281 60 60 60
-4.2455 4.0670 -0.0443 60 60 60
1.2113 0.3704 1.5314 60 60 60
4.4343 -6.7588 0.0657 60 60 60
3.3823 -3.8279 0.0477 60 60 60
-44.7837 -2.3666 10.4771 60 60 60
-0.2475 -3.9231 0.0333 60 60 60
-0.2067 6.0721 0.2897 60 60 60
2.8369 -20.7614 2.6370 60 60 60
0.4162 0.3619 1.5014 60 60 60
1.3997 -0.1996 1.4570 60 60 60
-8.0398 -3.6471 0.0001 60 60 60
42.3011 -55.3550 10.1972 60 60 60
0.0323 0.4360 1.4658 60 60 60
-38.3980 -5.9729 6.4718 60 60 60
0.3490 -0.3665 1.5123 60 60 60
1.2068 10.0495 0.4696 60 60 60
2.0326 -6.3709 0.0640 60 60 60
1.3097 -3.2623 0.0381 60 60 60
0.8506 -0.0003 1.8392 60 60 60
1.3493 0.0169 1.5471 60 60 60
4.1085 -5.3273 0.0674 60 60 60
0.0737 -9.9167 0.1616 60 60 60
1.9762 9.9988 0.6866 60 60 60
0.8263 3.1762 -0.0328 60 60 60
0.8169 -0.0005 1.8388 60 60 60
2.5252 -21.0954 4.6423 60 60 60
0.7690 -0.0007 1.8383 60 60 60
2.4441 -3.4928 0.0363 60 60 60
0.1088 -0.3753 1.4925 60 60 60
0.7066 -0.0009 1.8375 60 60 60
-3.4183 -5.1188 0.0117 60 60 60
-1.7187 6.5154 0.6207 60 60 60
0.7801 -0.0006 1.8384 60 60 60
0.6206 -0.0011 1.8363 60 60 60
0.3202 -0.4066 1.5060 60 60 60
-5.3631 1.7416 -0.0058 60 60 60
-6.1092 -1.0357 -0.0044 60 60 60
0.7559 -0.0007 1.8381 60 60 60
1.3079 0.0199 1.5307 60 60 60
6.5524 3.8771 0.2125 60 60 60
0.7887 -0.0006 1.8385 60 60 60
-1.8793 4.5434 0.1418 60 60 60
2.5754 3.5512 0.0054 60 60 60
1.6724 6.3406 0.3272 60 60 60
32.1574 -32.7170 -0.1802 60 60 60
1.2935 -0.2982 1.4764 60 60 60
4.0862 -17.2288 -0.3973 60 60 60
1.1724 -0.4743 1.4809 60 60 60
-0.3031 -4.8155 0.0383 60 60 60
0.6612 -0.0011 1.8369 60 60 60
-0.0811 0.1555 1.4902 60 60 60
0.7610 -0.0007 1.8382 60 60 60
-0.6677 -2.7811 -0.0024 60 60 60
0.1759 -0.4827 1.4703 60 60 60
-12.2482 12.1322 0.9804 60 60 60
0.3805 15.8599 4.9415 60 60 60
32.4798 -30.8242 -0.1511 60 60 60
-7.8115 1.1268 -0.0064 60 60 60
-13.9466 12.1960 1.3763 60 60 60
0.8857 -0.0002 1.8396 60 60 60
5.5296 -8.5558 0.0554 60 60 60
2.6331 11.3820 2.1257 60 60 60
0.1228 -3.1491 0.0260 60 60 60
-0.0596 0.0974 1.5016 60 60 60
3.6209 6.1995 1.1592 60 60 60
-4.7392 -7.1346 0.0131 60 60 60
2.0803 -7.0254 0.0665 60 60 60
-7.7616 -0.8754 0.0010 60 60 60
13.7867 -24.2236 5.2333 60 60 60
-22.1109 14.1592 5.0085 60 60 60
-39.7119 -10.3497 6.6789 60 60 60
-10.8693 -7.8547 0.7634 60 60 60
-0.7453 -2.8908 0.0218 60 60 60
0.2378 -0.3045 1.5170 60 60 60
-51.6523 -15.3600 4.2949 60 60 60
-9.0123 11.1278 0.7571 60 60 60
3.6803 6.1892 1.6398 60 60 60
12.9441 -22.0917 1.4083 60 60 60
-1.0897 -6.0184 0.0405 60 60 60
-5.2781 -1.7615 0.0009 60 60 60
-1.4333 -4.1394 0.0348 60 60 60
-1.6532 -3.0780 0.0215 60 60 60
1.1267 0.3898 1.5219 60 60 60
0.4837 6.5676 0.3320 60 60 60
-0.1230 0.4293 1.4430 60 60 60
5.1207 -6.2674 0.0624 60 60 60
0.0322 0.2665 1.4946 60 60 60
-14.6276 4.5947 1.1135 60 60 60
-13.8778 17.5354 3.9087 60 60 60
0.8088 -0.0005 1.8387 60 60 60
1.2087 0.3883 1.5275 60 60 60
56.8265 -43.6030 6.8222 60 60 60
-18.0753 3.5185 0.0752 60 60 60
0.3468 -5.1913 0.0551 60 60 60
-6.6330 -1.8752 0.0010 60 60 60
-13.8839 -27.7026 -0.1611 60 60 60
-5.9709 -4.8591 0.0017 60 60 60
0.8342 -0.0004 1.8390 60 60 60
-0.1852 -3.0889 0.0243 60 60 60
0.8506 -0.0003 1.8392 60 60 60
0.7827 3.5320 -0.0090 60 60 60
3.6304 -3.6228 0.0475 60 60 60
3.8727 4.7407 0.2818 60 60 60
-17.9497 -5.3793 -0.0145 60 60 60
-7.2006 5.1565 0.0358 60 60 60
-38.3513 -5.7293 7.4065 60 60 60
0.0104 0.2081 1.4939 60 60 60
-0.2328 3.8845 -0.0177 60 60 60
1.9185 -9.4993 0.1790 60 60 60
-4.5332 12.1707 3.2904 60 60 60
-3.4112 12.5816 4.2113 60 60 60
-5.5542 0.8668 -0.0078 60 60 60
2.4758 5.4702 0.3126 60 60 60
0.3863 -8.2986 0.0304 60 60 60
-2.5048 -3.9617 0.0212 60 60 60
3.7784 -3.5065 0.0418 60 60 60
5.3280 0.2847 0.0211 60 60 60
2.3876 -19.5265 3.9723 60 60 60
2.4917 9.6238 0.4720 60 60 60
0.2882 15.8717 4.9467 60 60 60
4.1316 4.6383 0.2571 60 60 60
2.8023 -5.0107 0.0618 60 60 60
2.7684 6.4262 0.3832 60 60 60
0.8554 -0.0003 1.8393 60 60 60
2.4102 0.4726 0.9939 60 60 60
-4.4863 -22.4644 3.4473 60 60 60
-4.7764 1.8249 -0.0048 60 60 60
0.7601 -0.0007 1.8382 60 60 60
-4.8442 -3.7642 0.0102 60 60 60
-9.4582 7.4226 0.3491 60 60 60
-0.9000 16.0333 3.4860 60 60 60
3.2562 4.2643 0.2344 60 60 60
0.8330 -0.0004 1.8390 60 60 60
6.3715 -5.0285 0.0565 60 60 60
10.9002 18.5594 2.6871 60 60 60
-5.5127 6.9029 0.2663 60 60 60
-22.0473 -34.4575 0.2617 60 60 60
0.7592 -0.0007 1.8382 60 60 60
1.2517 -0.4804 1.5264 60 60 60
0.8671 -0.0003 1.8394 60 60 60
1.2536 -0.0296 1.4922 60 60 60
5.6173 0.7669 0.0228 60 60 60
5.6558 -0.4817 0.0174 60 60 60
-6.1867 7.5693 0.3572 60 60 60
0.1358 -19.4742 4.4752 60 60 60
13.2455 -7.5733 0.1173 60 60 60
-3.1699 16.3627 1.6438 60 60 60
1.2811 0.0755 1.4863 60 60 60
1.2352 0.0182 1.5186 60 60 60
-5.7455 9.6877 0.4098 60 60 60
0.8488 -0.0004 1.8392 60 60 60
0.7269 -0.0008 1.8378 60 60 60
-2.6492 -5.5387 0.0211 60 60 60
5.2471 2.1868 0.0142 60 60 60
0.0264 -0.3673 1.4866 60 60 60
5.6256 -0.7715 0.0153 60 60 60
1.2322 -0.5283 1.4575 60 60 60
-0.2744 -4.8160 0.0396 60 60 60
0.8963 -0.4277 1.5797 60 60 60
-0.2288 5.6214 0.2596 60 60 60
0.6356 4.8611 0.2258 60 60 60
0.7496 -0.0007 1.8380 60 60 60
-6.6934 -21.0922 2.9396 60 60 60
-14.7208 -17.3776 3.2016 60 60 60
1.6330 4.1334 0.0600 60 60 60
0.7512 11.5457 3.8041 60 60 60
-3.5621 6.0730 0.2041 60 60 60
0.3154 0.3118 1.5126 60 60 60
-6.0808 -8.3488 0.9473 60 60 60
-1.1822 2.7911 -0.0333 60 60 60
-0.6751 -6.6677 0.0465 60 60 60
2.7204 3.7581 0.0098 60 60 60
0.8112 -0.0005 1.8388 60 60 60
5.0965 4.4515 0.2606 60 60 60
5.8268 -1.6586 0.0119 60 60 60
0.8674 -0.0003 1.8394 60 60 60
10.2711 5.6926 3.4650 60 60 60
4.1139 5.1494 0.3089 60 60 60
47.2338 -35.7259 11.4929 60 60 60
5.0044 -0.5171 0.0212 60 60 60
0.8411 -0.0004 1.8391 60 60 60
4.3363 3.8390 0.1037 60 60 60
-12.3692 1.5127 -0.0117 60 60 60
0.7663 -0.0007 1.8382 60 60 60
-17.3085 -6.7107 -0.0151 60 60 60
-22.2156 14.2068 4.3853 60 60 60
-17.3134 11.2577 0.3541 60 60 60
1.9457 -2.8800 0.0271 60 60 60
0.8650 -0.0003 1.8394 60 60 60
6.6372 -3.5111 0.0332 60 60 60
1.1032 -3.9302 0.0444 60 60 60
1.7584 -28.9010 -0.3818 60 60 60
-0.7978 4.0141 -0.0273 60 60 60
-2.4536 3.8349 -0.0325 60 60 60
0.7983 6.0099 0.3072 60 60 60
-0.8859 7.9883 0.3901 60 60 60
-2.7250 -2.8518 0.0169 60 60 60
-1.2104 9.0276 0.4228 60 60 60
-35.5371 12.5307 7.3173 60 60 60
-5.6840 -33.3720 1.0077 60 60 60
-12.5094 13.5146 3.5789 60 60 60
20.0026 -51.0620 8.7201 60 60 60
0.6839 -0.0010 1.8372 60 60 60
-1.9511 -4.3019 0.0247 60 60 60
13.5178 8.3632 0.4987 60 60 60
0.7481 -0.0008 1.8380 60 60 60
0.7000 -0.0009 1.8374 60 60 60
-5.0636 5.9805 0.2312 60 60 60
1.3117 -0.0548 1.5126 60 60 60
0.5346 -10.1303 0.8379 60 60 60
-0.1885 -6.1057 0.0513 60 60 60
0.7096 -0.0009 1.8375 60 60 60
-6.8735 -33.2876 1.0334 60 60 60
5.9082 1.3510 0.0220 60 60 60
-23.5408 18.7340 2.5431 60 60 60
-5.0207 -4.6543 0.0039 60 60 60
-0.3915 16.0363 1.9663 60 60 60
0.6636 -0.0011 1.8370 60 60 60
0.0773 -0.0081 1.5751 60 60 60
-0.3592 15.9976 2.7143 60 60 60
0.6313 -0.0012 1.8365 60 60 60
16.8464 11.3364 0.5864 60 60 60
0.1897 -2.9971 0.0208 60 60 60
-3.0176 -4.6867 0.0205 60 60 60
0.8755 3.5029 -0.0125 60 60 60
7.3714 -6.6698 0.0845 60 60 60
13.7804 -28.8322 6.5345 60 60 60
-2.3714 4.5942 0.0496 60 60 60
0.7693 -0.0007 1.8383 60 60 60
0.7514 -0.0007 1.8381 60 60 60
1.2800 4.7560 0.2281 60 60 60
6.0475 0.0104 0.0241 60 60 60
-1.2401 2.9424 -0.0104 60 60 60
3.1108 -3.0437 0.0304 60 60 60
-1.1089 16.1827 0.8442 60 60 60
0.8449 -0.0004 1.8391 60 60 60
-2.2647 3.1039 -0.0221 60 60 60
-1.4113 7.1312 0.3472 60 60 60
-8.5484 -8.0953 0.5744 60 60 60
0.7786 -0.0006 1.8384 60 60 60
-7.8197 -8.1980 0.8899 60 60 60
0.7645 4.2257 -0.0088 60 60 60
-6.5715 -22.8884 4.6950 60 60 60
0.8665 -0.0003 1.8394 60 60 60
-6.0270 -8.3779 0.6935 60 60 60
-1.2869 10.2050 0.7354 60 60 60
4.9201 4.4796 0.2895 60 60 60
1.3331 0.2923 1.4593 60 60 60
-4.7586 -5.9391 0.0135 60 60 60
-2.9444 -8.6778 0.3259 60 60 60
5.2504 3.0764 0.0115 60 60 60
-20.3928 14.5694 7.3265 60 60 60
1.3353 4.1631 0.0813 60 60 60
-4.3877 -22.7032 5.1029 60 60 60
-6.5336 -8.1890 0.1637 60 60 60
-4.5897 -16.9266 0.6265 60 60 60
8.3390 4.4674 0.2133 60 60 60
2.3133 -5.2221 0.0625 60 60 60
-5.6724 -5.1744 0.0040 60 60 60
10.9811 -20.9826 5.8493 60 60 60
0.7111 -0.0009 1.8376 60 60 60
-3.3252 10.9751 0.9105 60 60 60
-0.4406 15.9979 3.0911 60 60 60
1.4193 -21.5002 3.1983 60 60 60
1.2780 0.1038 1.4845 60 60 60
8.9973 7.0253 0.3996 60 60 60
0.4927 0.4455 1.4963 60 60 60
0.4156 15.8899 3.4306 60 60 60
0.8318 -0.4486 1.5648 60 60 60
0.4068 0.3508 1.5015 60 60 60
8.6930 -10.2285 0.0661 60 60 60
-1.9152 -3.5325 0.0267 60 60 60
1.0784 -0.4849 1.4949 60 60 60
0.8486 3.1758 -0.0166 60 60 60
4.9945 -21.8642 0.5653 60 60 60
0.8148 -0.0005 1.8388 60 60 60
0.3269 3.9659 -0.0134 60 60 60
5.6634 2.2404 0.0115 60 60 60
0.8629 -0.0003 1.8393 60 60 60
0.8094 -0.0005 1.8387 60 60 60
-17.6980 -5.8917 -0.0128 60 60 60
-11.4363 -21.3128 2.0098 60 60 60
-24.6890 -6.0496 0.5903 60 60 60
-8.8359 1.8931 -0.0063 60 60 60
2.5257 -2.7554 0.0181 60 60 60
-58.3771 -25.8729 1.6240 60 60 60
1.3702 0.2234 1.4555 60 60 60
8.9871 -6.8003 0.0870 60 60 60
-19.1526 -15.9512 5.2264 60 60 60
-1.1995 4.4639 -0.0013 60 60 60
0.0483 4.3304 0.1674 60 60 60
2.7553 11.3193 2.1214 60 60 60
-0.0244 -16.1322 4.4143 60 60 60
6.5411 -4.8284 0.0535 60 60 60
2.7056 -2.8148 0.0355 60 60 60
2.2619 8.4713 0.4308 60 60 60
0.1319 -0.1417 1.5118 60 60 60
1.2775 -0.0577 1.4772 60 60 60
-6.1939 0.7501 -0.0079 60 60 60
1.7904 4.1389 0.0369 60 60 60
-78.1377 -6.9391 1.8757 60 60 60
-6.6368 2.3847 -0.0159 60 60 60
-7.6160 2.2727 -0.0129 60 60 60
1.2744 -0.3723 1.5261 60 60 60
-9.8832 5.4945 0.1537 60 60 60
-1.7484 6.4562 2.5957 60 60 60
10.4538 7.7647 0.4760 60 60 60
10.7798 7.6463 0.4501 60 60 60
10.9401 -21.5376 5.3663 60 60 60
4.1623 -2.2042 0.0187 60 60 60
-14.8555 7.1472 0.2498 60 60 60
2.9684 -6.6986 0.0677 60 60 60
-3.0551 3.2267 -0.0218 60 60 60
1.7804 -13.5804 -0.1836 60 60 60
4.1225 -3.1669 0.0351 60 60 60
5.2289 -18.7746 4.3259 60 60 60
-36.0095 8.5082 7.2276 60 60 60
-21.2841 15.6936 5.0122 60 60 60
0.7332 -0.0008 1.8378 60 60 60
3.0396 3.8835 0.0145 60 60 60
-3.2737 -8.7361 0.3028 60 60 60
4.6710 -9.1376 0.0505 60 60 60
0.7741 -0.0006 1.8383 60 60 60
0.6498 -3.9702 0.0449 60 60 60
-0.3906 -7.4017 0.0458 60 60 60
-1.3561 16.0737 4.2755 60 60 60
-1.0095 -5.5316 0.0344 60 60 60
0.4443 -0.4944 1.4999 60 60 60
-7.3416 -8.3893 0.6223 60 60 60
1.0701 0.5516 1.4599 60 60 60
-5.2553 2.1781 -0.0159 60 60 60
1.1107 -0.4489 1.4794 60 60 60
-8.4562 6.3759 0.2509 60 60 60
47.0781 -45.0047 4.9478 60 60 60
0.7448 -0.0008 1.8380 60 60 60
1.5993 0.2560 1.3628 60 60 60
2.1366 3.0595 0.0022 60 60 60
10.2622 -11.1372 0.8545 60 60 60
2.7664 7.8718 2.7866 60 60 60
-7.6518 2.0739 -0.0095 60 60 60
-6.5005 -4.1657 0.0013 60 60 60
1.1718 0.3766 1.5265 60 60 60
-21.7497 14.1235 4.9690 60 60 60
-0.5689 3.2971 -0.0139 60 60 60
-5.1437 2.4979 -0.0208 60 60 60
1.2543 -0.2332 1.4920 60 60 60
-74.6610 -0.4541 8.9642 60 60 60
19.3102 -52.0685 3.6514 60 60 60
1.1234 0.3297 1.4911 60 60 60
-7.5174 -4.6183 -0.0073 60 60 60
-2.5400 16.2807 2.0197 60 60 60
0.7681 -0.0007 1.8383 60 60 60
-6.4272 -2.4592 0.0015 60 60 60
2.8051 8.0449 2.6103 60 60 60
3.3933 4.6000 0.2572 60 60 60
-2.3543 16.2015 3.9511 60 60 60
-10.3363 1.7255 -0.0059 60 60 60
0.7138 -0.0009 1.8376 60 60 60
-18.2487 8.2992 0.4106 60 60 60
1.8233 -3.5193 0.0410 60 60 60
2.4772 2.8495 0.0003 60 60 60
-29.8782 16.3092 5.1231 60 60 60
1.6599 -5.9161 0.0608 60 60 60
-5.8309 5.5355 0.1913 60 60 60
1.3143 -13.7867 -0.1985 60 60 60
1.0585 0.4183 1.4837 60 60 60
0.7209 -0.0009 1.8377 60 60 60
0.8225 -0.0005 1.8389 60 60 60
-7.8937 -19.0222 1.9371 60 60 60
-0.5127 3.5604 -0.0190 60 60 60
-1.6328 -8.8147 0.3428 60 60 60
0.2874 0.2445 1.5173 60 60 60
-1.0989 4.4496 0.0173 60 60 60
0.7362 -0.0008 1.8379 60 60 60
1.8478 -6.4003 0.0699 60 60 60
0.4092 5.6054 0.2745 60 60 60
0.7541 -0.0007 1.8381 60 60 60
-6.1921 12.3174 1.7545 60 60 60
9.0503 6.9031 0.4020 60 60 60
5.0644 -0.7539 -0.3921 60 60 60
6.1663 -3.1891 0.0237 60 60 60
-3.4353 2.7023 -0.0144 60 60 60
-11.3261 17.3394 2.7319 60 60 60
-6.3270 -8.3472 0.6813 60 60 60
0.7454 -0.0008 1.8380 60 60 60
0.1053 10.1386 0.4911 60 60 60
1.1030 -0.4647 1.4943 60 60 60
-80.9102 1.3920 7.6542 60 60 60
0.8309 -0.0004 1.8390 60 60 60
0.7191 -0.0009 1.8377 60 60 60
-14.5653 4.3774 0.7454 60 60 60
2.5929 4.2988 0.2165 60 60 60
0.7153 -0.0009 1.8376 60 60 60
5.6122 -0.8570 0.0151 60 60 60
-2.4701 -4.4655 0.0246 60 60 60
-3.4250 7.5165 0.3584 60 60 60
5.6673 -0.1041 0.0218 60 60 60
0.1595 10.4505 0.9429 60 60 60
5.2282 10.2575 1.2624 60 60 60
4.6809 7.3281 0.4059 60 60 60
0.8755 -0.0003 1.8395 60 60 60
-0.6061 6.5353 0.3285 60 60 60
0.2961 4.8819 0.2249 60 60 60
6.0115 0.7294 0.0231 60 60 60
0.4037 -0.4262 1.4954 60 60 60
-2.8488 2.9137 -0.0169 60 60 60
0.9192 -4.4836 0.0515 60 60 60
-12.7582 13.1432 3.5769 60 60 60
-1.8552 3.8078 -0.0222 60 60 60
-6.3837 -2.5384 0.0040 60 60 60
-3.3466 3.5101 -0.0264 60 60 60
4.3202 -6.8296 0.0664 60 60 60
1.2724 0.0326 1.5309 60 60 60
-4.7592 -8.4850 0.4985 60 60 60
-4.4612 -5.1848 0.0047 60 60 60
6.6047 9.2987 0.7158 60 60 60
2.3636 0.5572 1.0036 60 60 60
-4.5310 1.1100 -0.0139 60 60 60
-2.8638 -8.7613 0.3159 60 60 60
12.7269 -8.5574 0.1147 60 60 60
3.0665 4.0687 0.1979 60 60 60
0.8160 -0.0005 1.8388 60 60 60
5.3905 -8.6577 0.0547 60 60 60
15.6838 -23.0681 5.1891 60 60 60
-41.5270 -41.1386 1.2533 60 60 60
0.0771 -0.0125 1.5750 60 60 60
0.7305 -0.0008 1.8378 60 60 60
1.1245 0.3602 1.5152 60 60 60
0.7804 -0.0006 1.8384 60 60 60
-10.0967 -6.2785 0.0014 60 60 60
0.3557 4.6011 0.1980 60 60 60
-7.4244 7.9545 3.9883 60 60 60
2.3258 -2.8629 0.0300 60 60 60
1.1855 0.4371 1.5408 60 60 60
-3.5561 -17.0351 0.6132 60 60 60
7.8854 9.1488 0.8986 60 60 60
0.8160 -0.0005 1.8388 60 60 60
0.8697 4.5329 0.2079 60 60 60
0.3119 0.4761 1.4815 60 60 60
0.4388 -3.5266 0.0431 60 60 60
-8.9749 0.1367 -0.0028 60 60 60
-18.1787 2.6399 0.9743 60 60 60
0.4669 3.9778 -0.0141 60 60 60
-10.1378 3.1605 -0.0247 60 60 60
1.3529 0.0599 1.5246 60 60 60
0.0886 -0.3042 1.4968 60 60 60
6.2535 7.2803 2.1720 60 60 60
0.8198 11.5332 3.8004 60 60 60
0.6215 -0.0012 1.8364 60 60 60
0.3452 -0.3410 1.5185 60 60 60
0.6615 -0.0011 1.8369 60 60 60
0.7305 -0.0008 1.8378 60 60 60
6.7458 5.5273 3.0691 60 60 60
5.1932 1.2284 0.0194 60 60 60
4.3412 -5.9192 0.0674 60 60 60
0.8838 -0.0002 1.8396 60 60 60
1.1341 0.3245 1.4878 60 60 60
5.0756 -7.4162 0.0650 60 60 60
3.4963 3.5153 0.0151 60 60 60
5.5261 1.2855 0.0209 60 60 60
0.6860 -0.0010 1.8372 60 60 60
-13.2083 17.5359 3.3368 60 60 60
-0.9580 -3.2064 0.0304 60 60 60
-3.4561 -2.4981 0.0023 60 60 60
0.7717 -0.0007 1.8383 60 60 60
3.6938 4.8966 0.2784 60 60 60
-7.6391 2.1242 -0.0095 60 60 60
0.4437 -0.4630 1.4951 60 60 60
4.5447 -1.4137 0.0129 60 60 60
-7.0423 11.0306 0.5125 60 60 60
1.1931 -8.1467 0.0426 60 60 60
2.7878 6.3707 2.1365 60 60 60
0.7227 -0.0009 1.8377 60 60 60
0.8539 -0.0003 1.8392 60 60 60
0.8671 -0.0003 1.8394 60 60 60
-3.5284 -8.6285 0.3074 60 60 60
5.7662 -27.6146 -0.4129 60 60 60
2.0129 10.5965 1.1202 60 60 60
0.7621 3.3337 -0.0172 60 60 60
-3.1399 4.8653 0.1612 60 60 60
-56.3158 -32.8943 4.5651 60 60 60
-0.4186 16.0465 1.2161 60 60 60
-4.3392 -3.4698 0.0103 60 60 60
2.7645 10.5456 1.0963 60 60 60
5.6228 -2.2180 0.0120 60 60 60
5.3346 0.1223 0.0208 60 60 60
-4.8469 4.3340 -0.0462 60 60 60
-6.1513 -0.6330 0.0002 60 60 60
0.6920 -0.0010 1.8373 60 60 60
-9.4745 -3.9625 -0.0091 60 60 60
-0.0596 0.2898 1.4841 60 60 60
1.8928 -5.8529 0.0615 60 60 60
1.9067 11.4549 2.4134 60 60 60
2.0328 -9.0460 0.0293 60 60 60
2.4916 -20.8942 3.1374 60 60 60
-0.0713 0.3617 1.4704 60 60 60
-4.6950 5.2900 0.1903 60 60 60
1.9258 -7.9552 0.0502 60 60 60
1.2366 -5.1003 0.0611 60 60 60
17.0923 18.8917 4.4738 60 60 60
2.5806 -7.7055 0.0609 60 60 60
0.7816 -0.0006 1.8384 60 60 60
-4.0029 -24.8791 3.5790 60 60 60
-9.0875 -17.7259 3.3947 60 60 60
-5.7407 7.8800 0.3583 60 60 60
0.5246 0.4829 1.4898 60 60 60
1.9193 -3.0608 0.0381 60 60 60
1.9553 -3.7177 0.0383 60 60 60
1.1780 -0.3248 1.5114 60 60 60
0.7493 -0.0008 1.8380 60 60 60
-0.6173 -4.4021 0.0421 60 60 60
0.8399 -0.0004 1.8391 60 60 60
0.0818 -0.2347 1.5032 60 60 60
0.8443 -0.0004 1.8391 60 60 60
-15.0880 0.3432 -0.0073 60 60 60
-3.3567 16.2901 4.4118 60 60 60
-55.2644 -15.7135 5.8309 60 60 60
6.0091 -4.3341 0.0560 60 60 60
0.6708 -0.0011 1.8370 60 60 60
4.7899 4.7141 0.2737 60 60 60
-4.6153 -2.0231 0.0052 60 60 60
0.1032 -0.0513 1.5641 60 60 60
-25.1460 15.6592 7.5782 60 60 60
6.7977 7.5893 2.6426 60 60 60
0.8554 -0.0003 1.8393 60 60 60
2.6664 11.3121 1.5891 60 60 60
-1.8755 6.6345 1.1071 60 60 60
-4.2327 3.0444 -0.0169 60 60 60
-50.9670 -13.2146 4.2625 60 60 60
0.7613 -0.0007 1.8382 60 60 60
3.1486 -3.0200 0.0272 60 60 60
1.2321 -0.4470 1.5237 60 60 60
0.5698 -3.7371 0.0453 60 60 60
-4.7216 3.3828 -0.0351 60 60 60
0.5861 3.1802 -0.0216 60 60 60
0.0455 -0.0457 1.5853 60 60 60
10.9998 -10.5624 0.1468 60 60 60
4.2116 3.2326 0.0123 60 60 60
0.8578 -0.0003 1.8393 60 60 60
1.2266 0.3711 1.5254 60 60 60
-2.5634 6.4352 2.8199 60 60 60
-8.7562 12.3592 1.0508 60 60 60
-0.6680 4.5218 0.1679 60 60 60
1.3733 0.0946 1.4926 60 60 60
5.6531 -2.1284 0.0141 60 60 60
66.9259 -72.1900 2.0616 60 60 60
-4.9972 -0.7684 -0.0033 60 60 60
-0.0811 4.8618 0.2204 60 60 60
-7.5191 -22.5615 2.4652 60 60 60
13.0812 -26.9330 2.0640 60 60 60
2.0229 4.2581 0.1967 60 60 60
-4.4294 2.6822 -0.0124 60 60 60
0.2535 15.9690 1.5792 60 60 60
2.1516 11.3974 3.7601 60 60 60
-0.7269 5.1918 0.2164 60 60 60
1.1912 -0.3792 1.5238 60 60 60
45.5396 -48.8545 8.1867 60 60 60
9.4224 -9.2520 0.0847 60 60 60
-13.1887 17.4190 5.9799 60 60 60
-5.4527 -1.1993 -0.0045 60 60 60
-3.1356 -4.6106 0.0185 60 60 60
0.8638 -0.0003 1.8394 60 60 60
68.0327 -44.6402 11.2425 60 60 60
-6.5877 2.5605 -0.0186 60 60 60
2.0750 11.4090 3.4888 60 60 60
0.7729 -0.0006 1.8383 60 60 60
0.8482 -0.0004 1.8392 60 60 60
6.5979 -3.5815 0.0333 60 60 60
0.0637 -0.1598 1.5027 60 60 60
-2.2412 3.9952 -0.0330 60 60 60
-1.1259 -6.0132 0.0397 60 60 60
2.3898 -16.9684 4.9052 60 60 60
5.4329 -10.7305 0.5661 60 60 60
5.1226 1.4934 0.0185 60 60 60
0.0644 -0.1876 1.5008 60 60 60
1.4128 -0.0605 1.5198 60 60 60
1.0611 -5.1373 0.0575 60 60 60
13.7830 -19.6221 5.8270 60 60 60
-4.5687 -6.0779 0.0140 60 60 60
1.2891 -4.1346 0.0538 60 60 60
-24.0684 3.9113 1.8820 60 60 60
2.4980 11.3967 2.1289 60 60 60
0.7744 -0.0006 1.8383 60 60 60
-30.9261 -30.5160 3.4527 60 60 60
-13.4489 17.4627 4.4050 60 60 60
18.5116 -50.6489 7.3710 60 60 60
-3.2907 -4.5224 0.0115 60 60 60
3.8488 6.1476 2.9340 60 60 60
5.1377 5.9458 0.3564 60 60 60
3.4371 11.2864 2.1071 60 60 60
1.2312 15.8634 1.1789 60 60 60
0.0420 0.3881 1.4783 60 60 60
0.7654 -0.0007 1.8382 60 60 60
0.8689 -0.0003 1.8394 60 60 60
-4.5207 2.4976 -0.0113 60 60 60
0.9246 -0.0001 1.8400 60 60 60
0.8473 -3.0154 0.0227 60 60 60
0.7009 -0.0010 1.8374 60 60 60
1.6027 5.3894 0.2752 60 60 60
0.8282 -0.0005 1.8390 60 60 60
-0.7001 3.4863 -0.0167 60 60 60
-4.4654 16.4443 3.6845 60 60 60
-2.3440 -8.7887 0.7729 60 60 60
3.3214 -36.8225 -0.1660 60 60 60
-1.2089 5.1135 0.2001 60 60 60
4.6361 3.2481 0.0160 60 60 60
4.3470 -18.8681 5.2507 60 60 60
-1.7988 -8.4867 0.1791 60 60 60
1.1104 0.3373 1.4945 60 60 60
5.7526 1.9663 0.0155 60 60 60
2.0372 -3.6815 0.0397 60 60 60
-0.3098 3.3847 -0.0130 60 60 60
0.8195 -0.0005 1.8389 60 60 60
-7.1338 -6.9648 0.0030 60 60 60
1.3222 0.0686 1.5203 60 60 60
-76.7017 -43.4237 3.4656 60 60 60
0.8113 3.1836 -0.0208 60 60 60
0.8707 -0.0003 1.8394 60 60 60
0.8650 -0.0003 1.8394 60 60 60
-6.6579 12.4676 2.0969 60 60 60
-8.6493 -7.8951 0.0002 60 60 60
0.0700 -10.0932 0.8510 60 60 60
3.5425 3.9215 0.1374 60 60 60
-0.3463 -3.2171 0.0337 60 60 60
24.1526 22.0230 2.8953 60 60 60
-0.0087 -3.4889 0.0392 60 60 60
0.7750 -0.0006 1.8383 60 60 60
-41.6692 14.6710 10.3885 60 60 60
-3.0622 -4.0770 0.0140 60 60 60
-6.2579 -22.2851 2.9680 60 60 60
-4.6646 -3.9700 0.0134 60 60 60
1.9578 -34.1809 0.8111 60 60 60
-26.4157 3.1361 -0.0374 60 60 60
42.2482 -60.2262 9.0021 60 60 60
0.6961 -0.0010 1.8374 60 60 60
0.4237 -21.8239 3.7528 60 60 60
1.0543 -0.4884 1.4839 60 60 60
-12.4396 5.8591 0.1578 60 60 60
-5.9935 -24.3734 3.6285 60 60 60
1.1790 -0.3489 1.5035 60 60 60
6.7113 -3.4164 0.0278 60 60 60
-0.5424 2.9027 -0.0179 60 60 60
-3.5901 6.0356 0.2078 60 60 60
-3.6944 -8.4824 0.0901 60 60 60
8.0218 -8.0380 0.0827 60 60 60
0.7672 -0.0007 1.8382 60 60 60
0.8545 -0.0003 1.8393 60 60 60
-8.8752 6.1005 0.2269 60 60 60
-2.9106 16.2265 5.1780 60 60 60
2.5915 4.0511 0.1734 60 60 60
5.1440 3.2384 0.0132 60 60 60
16.5850 -26.4397 4.1649 60 60 60
0.7553 -0.0007 1.8381 60 60 60
7.8848 -6.0326 0.0837 60 60 60
5.9888 0.9174 0.0223 60 60 60
0.8118 -0.0005 1.8388 60 60 60
-0.2926 2.9920 -0.0131 60 60 60
1.1916 -0.3044 1.5101 60 60 60
-4.3282 -4.3478 0.0122 60 60 60
-2.1517 6.3527 0.2853 60 60 60
0.3328 0.3377 1.5124 60 60 60
1.5404 4.0764 -0.0209 60 60 60
1.3348 10.8208 0.8739 60 60 60
-6.3372 4.9628 -0.0234 60 60 60
-1.9523 16.2196 1.6226 60 60 60
3.6523 5.9066 0.3876 60 60 60
0.5290 7.2197 0.3572 60 60 60
-1.6654 4.6045 0.1550 60 60 60
1.4235 3.5883 -0.0065 60 60 60
-5.5146 -8.1338 0.0056 60 60 60
-0.3474 15.9958 3.0882 60 60 60
1.1172 -0.4517 1.4940 60 60 60
0.8494 -0.0004 1.8392 60 60 60
-12.2355 11.8579 1.4034 60 60 60
-38.9478 -4.6300 10.3667 60 60 60
2.2749 -3.0986 0.0357 60 60 60
-0.4879 3.1117 -0.0116 60 60 60
5.0082 0.4967 0.0223 60 60 60
-19.2724 1.7214 -0.0162 60 60 60
0.8792 -0.4551 1.5683 60 60 60
1.2465 -0.2774 1.4872 60 60 60
0.9773 0.4847 1.4827 60 60 60
6.0635 -4.2753 0.0536 60 60 60
0.6675 -0.0011 1.8370 60 60 60
0.7651 -0.0007 1.8382 60 60 60
-8.5378 3.2359 -0.0195 60 60 60
0.8569 -0.0003 1.8393 60 60 60
0.8593 -0.0003 1.8393 60 60 60
0.8312 -0.0004 1.8390 60 60 60
-9.4802 7.3511 0.3525 60 60 60
2.5278 4.6392 0.2531 60 60 60
3.2618 15.5346 4.4579 60 60 60
-14.5550 7.3380 0.2660 60 60 60
2.4024 -0.5779 0.9906 60 60 60
8.2751 -5.5803 0.0718 60 60 60
-4.4723 1.3260 -0.0113 60 60 60
-4.7950 -16.8979 0.6292 60 60 60
-0.4187 -3.6251 0.0380 60 60 60
-3.3024 6.4223 3.4331 60 60 60
0.7630 -0.0007 1.8382 60 60 60
2.0917 11.3821 4.0349 60 60 60
-2.5067 2.8719 -0.0258 60 60 60
-31.2827 15.2059 6.0393 60 60 60
-7.8567 0.6748 -0.0071 60 60 60
0.0550 0.0571 1.5659 60 60 60
2.1403 -6.3359 0.0646 60 60 60
0.8139 -0.0005 1.8388 60 60 60
3.8709 3.1414 0.0132 60 60 60
-4.6153 3.5394 -0.0350 60 60 60
4.2477 2.0964 0.0171 60 60 60
-12.0010 -29.3643 2.7195 60 60 60
-0.5990 -9.0418 0.5320 60 60 60
-6.8090 4.3572 -0.0332 60 60 60
1.1050 0.3814 1.5157 60 60 60
1.4955 -5.4739 0.0598 60 60 60
0.8273 -0.0004 1.8389 60 60 60
7.6773 -6.2851 0.0860 60 60 60
0.1893 -0.1775 1.5148 60 60 60
-10.8631 -48.3089 5.3105 60 60 60
0.2904 -0.3496 1.5101 60 60 60
-9.0627 -8.0554 0.8427 60 60 60
2.7194 -0.4229 0.9191 60 60 60
0.7275 -0.0008 1.8378 60 60 60
-11.7401 -7.7183 0.3788 60 60 60
-1.7784 11.2453 0.8933 60 60 60
0.1350 0.0382 1.5150 60 60 60
-3.1622 -3.4380 0.0084 60 60 60
12.1943 -21.8851 3.1535 60 60 60
-2.2097 -5.1555 0.0210 60 60 60
-6.9292 -0.2979 -0.0024 60 60 60
0.7323 -0.0008 1.8378 60 60 60
0.1183 0.3363 1.4915 60 60 60
-3.2181 16.3223 2.8225 60 60 60
1.7081 -4.0361 0.0517 60 60 60
0.7675 -0.0007 1.8383 60 60 60
1.0233 15.8305 3.0324 60 60 60
-1.8409 4.5396 0.1486 60 60 60
0.9176 -3.0291 0.0106 60 60 60
2.5953 8.3485 0.4300 60 60 60
1.1497 -0.4965 1.4814 60 60 60
10.7845 -21.5561 3.6802 60 60 60
-12.0703 3.1798 -0.0099 60 60 60
7.1116 -5.4311 0.0640 60 60 60
-3.1277 8.8399 0.3960 60 60 60
-0.6554 -3.8198 0.0334 60 60 60
0.8360 -0.0004 1.8390 60 60 60
0.8393 -0.0004 1.8391 60 60 60
-6.9895 6.9985 0.3450 60 60 60
0.7423 6.5589 0.3208 60 60 60
0.3558 10.1046 0.7323 60 60 60
2.4562 -3.7320 0.0503 60 60 60
-2.1098 10.3966 0.4545 60 60 60
0.8647 -0.0003 1.8394 60 60 60
1.4602 -0.4295 1.4107 60 60 60
1.1399 0.3449 1.5138 60 60 60
-14.6373 -7.1901 0.1833 60 60 60
-7.9130 -3.8949 -0.0003 60 60 60
-4.9100 11.3950 1.1539 60 60 60
1.2425 -0.0132 1.4986 60 60 60
45.8048 -40.8240 10.4508 60 60 60
2.0566 -3.1966 0.0424 60 60 60
0.3825 0.2443 1.5257 60 60 60
-3.8485 5.7316 0.2315 60 60 60
-25.4021 15.4201 8.3410 60 60 60
1.3007 0.2219 1.4703 60 60 60
-0.1273 5.6211 0.2627 60 60 60
1.8616 3.9580 -0.0164 60 60 60
-45.0362 -39.2564 5.5391 60 60 60
27.1177 -30.1514 0.0818 60 60 60
8.3541 -10.9169 0.6550 60 60 60
-17.2060 13.6211 5.0171 60 60 60
-0.1673 4.8438 0.2224 60 60 60
4.9962 -1.8133 0.0156 60 60 60
-4.4303 -3.3582 0.0084 60 60 60
9.8716 -5.6000 0.0677 60 60 60
1.5024 -0.3420 1.4083 60 60 60
-15.1161 0.0685 -0.0116 60 60 60
-1.8279 -2.6473 0.0186 60 60 60
6.9589 3.5380 0.1644 60 60 60
1.2563 -0.1986 1.4784 60 60 60
0.8620 -0.0003 1.8393 60 60 60
4.9270 3.5215 0.0196 60 60 60
1.0097 4.1739 -0.0115 60 60 60
-42.4740 12.7287 10.4254 60 60 60
0.8264 -0.0004 1.8389 60 60 60
1.5827 -4.6907 0.0511 60 60 60
-3.5052 -23.9772 6.3897 60 60 60
2.4403 4.3635 0.2213 60 60 60
2.4444 -4.7487 0.0582 60 60 60
5.6604 0.3903 0.0209 60 60 60
0.9308 -0.0001 1.8401 60 60 60
1.2713 -7.2391 0.0603 60 60 60
1.1710 -0.4782 1.4800 60 60 60
0.2890 -0.2266 1.5190 60 60 60
-3.5838 6.8303 0.2567 60 60 60
11.7154 -20.3687 5.2399 60 60 60
-4.0994 -2.1268 0.0019 60 60 60
15.0786 -10.4893 0.1786 60 60 60
2.6917 4.0250 0.0427 60 60 60
-2.2743 -8.7630 0.9948 60 60 60
-12.0193 3.5652 -0.0170 60 60 60
5.5354 1.2579 0.0199 60 60 60
0.0305 0.2726 1.4931 60 60 60
2.0026 3.3582 -0.0003 60 60 60
-36.1789 14.7638 10.3826 60 60 60
3.6590 -5.6471 0.0635 60 60 60
2.8536 -3.8155 0.0517 60 60 60
3.7856 6.7249 0.4000 60 60 60
1.2658 -0.3797 1.5279 60 60 60
0.7671 4.3542 0.1722 60 60 60
-18.1121 -5.0742 -0.0176 60 60 60
3.7940 5.8452 0.3813 60 60 60
1.2631 -0.2227 1.4889 60 60 60
0.0026 -0.2024 1.4977 60 60 60
2.7427 7.3055 0.3961 60 60 60
1.3898 4.4343 0.2077 60 60 60
-37.3172 12.8872 6.6150 60 60 60
-44.0837 -4.7381 0.7965 60 60 60
0.6615 3.1797 -0.0193 60 60 60
1.1782 -0.3212 1.5124 60 60 60
1.2515 -0.5490 1.4644 60 60 60
-1.8944 3.0384 -0.0122 60 60 60
3.4656 6.2433 1.1656 60 60 60
0.8827 -0.0002 1.8396 60 60 60
15.0804 12.2405 0.6744 60 60 60
0.7469 -0.0008 1.8380 60 60 60
1.0751 8.7762 0.4361 60 60 60
-4.0752 -21.9133 4.9819 60 60 60
2.8892 11.2997 2.1181 60 60 60
0.4205 3.9744 -0.0139 60 60 60
2.5922 -2.8952 0.0370 60 60 60
-2.4306 7.8722 0.3592 60 60 60
0.3660 -0.4860 1.4957 60 60 60
-13.9071 -17.0687 4.2017 60 60 60
2.5730 11.3741 2.3971 60 60 60
64.7847 -72.3265 6.5884 60 60 60
1.2058 0.4057 1.5425 60 60 60
4.3620 -5.1198 0.0699 60 60 60
4.6910 -1.7655 0.0162 60 60 60
3.5828 4.1185 0.2071 60 60 60
-4.6137 -8.4660 0.2701 60 60 60
1.4409 4.7031 0.2329 60 60 60
1.3259 0.1237 1.4740 60 60 60
0.7699 -0.0007 1.8383 60 60 60
-53.7133 -19.4573 5.7546 60 60 60
4.1335 1.8457 0.0025 60 60 60
0.7329 0.4623 1.5704 60 60 60
-0.0031 3.9372 -0.0203 60 60 60
1.2762 8.7371 0.4352 60 60 60
5.4642 -15.4964 -0.2633 60 60 60
0.7672 -0.0007 1.8382 60 60 60
-5.3231 1.9637 -0.0138 60 60 60
4.9410 -2.6712 0.0190 60 60 60
-9.5524 -3.7868 -0.0084 60 60 60
-6.5609 -7.4257 0.0055 60 60 60
-1.6003 3.6253 -0.0267 60 60 60
2.2082 3.4953 0.0016 60 60 60
0.1380 0.4945 1.4630 60 60 60
-53.4759 -19.3654 3.0441 60 60 60
6.1183 -6.5034 0.0716 60 60 60
-0.4578 4.1193 -0.0267 60 60 60
1.2028 0.2392 1.4798 60 60 60
0.9553 11.5344 3.7978 60 60 60
-3.7840 16.4154 2.0506 60 60 60
-2.8675 -29.6870 -0.3423 60 60 60
-1.2750 5.1049 0.1963 60 60 60
-35.6148 13.2867 8.2849 60 60 60
0.8016 -0.0005 1.8386 60 60 60
-0.7459 4.4021 0.0769 60 60 60
1.2519 -6.0027 0.0599 60 60 60
0.8848 -0.0002 1.8396 60 60 60
-11.8960 17.1112 3.7485 60 60 60
0.7487 -0.0008 1.8380 60 60 60
0.2359 -0.1613 1.5197 60 60 60
-11.1229 -7.8231 0.4174 60 60 60
0.7254 -0.0008 1.8377 60 60 60
5.4184 1.6827 0.0200 60 60 60
-0.1985 -5.1852 0.0468 60 60 60
0.1418 4.2113 -0.0160 60 60 60
-0.5338 -3.1610 0.0311 60 60 60
2.2061 4.4482 0.2294 60 60 60
-6.1055 6.4099 0.2647 60 60 60
-2.5603 -8.6110 0.1282 60 60 60
0.4106 0.3527 1.5025 60 60 60
4.2723 -19.8166 3.5108 60 60 60
0.8602 -0.0003 1.8393 60 60 60
-2.6248 -8.7688 0.7707 60 60 60
0.6012 -3.5298 0.0426 60 60 60
4.1234 -9.4863 0.0418 60 60 60
-2.2061 -4.1536 0.0243 60 60 60
-1.2947 13.4887 4.2238 60 60 60
1.2003 -0.2952 1.5080 60 60 60
13.3514 -28.8410 2.0891 60 60 60
4.6934 5.2679 2.8592 60 60 60
0.8803 -0.0003 1.8395 60 60 60
0.4136 4.2815 0.0821 60 60 60
0.1991 0.5026 1.4573 60 60 60
0.6393 5.5976 0.2756 60 60 60
-1.6699 -5.3701 0.0243 60 60 60
12.9425 -19.5567 5.7524 60 60 60
4.9949 -7.4769 0.0644 60 60 60
-4.6647 2.1477 -0.0074 60 60 60
44.8142 -43.8015 10.6761 60 60 60
4.8377 -1.3608 0.0163 60 60 60
-22.4227 14.2889 2.4897 60 60 60
0.0706 -29.5522 -0.3892 60 60 60
9.7120 -5.7934 0.0753 60 60 60
-1.2076 -9.3856 0.0225 60 60 60
0.8464 -0.0004 1.8392 60 60 60
2.3662 -21.3883 -0.3311 60 60 60
0.8551 -0.0003 1.8393 60 60 60
0.2091 3.9587 -0.0158 60 60 60
-1.4990 16.2061 0.8485 60 60 60
6.2269 -10.7950 0.7925 60 60 60
8.0282 -4.1716 0.0416 60 60 60
7.4422 -3.5808 0.0246 60 60 60
12.5314 -11.3206 1.1019 60 60 60
-6.5680 6.1495 0.2413 60 60 60
-1.5797 3.9843 -0.0262 60 60 60
0.7552 3.1782 -0.0175 60 60 60
-1.5001 -3.1739 0.0248 60 60 60
0.7804 -0.0006 1.8384 60 60 60
0.9147 -5.1597 0.0559 60 60 60
3.7372 -4.4509 0.0555 60 60 60
0.7741 -0.0006 1.8383 60 60 60
-0.7159 -3.5431 0.0331 60 60 60
-0.3791 -3.0278 0.0265 60 60 60
2.2552 -5.2495 0.0608 60 60 60
13.1787 -24.0876 5.1925 60 60 60
0.2401 -0.1824 1.5194 60 60 60
-2.6086 16.2531 2.7976 60 60 60
-3.6462 -6.6255 0.0189 60 60 60
13.1861 8.5686 0.5193 60 60 60
-39.7531 -7.6304 10.6029 60 60 60
-23.0150 -27.9005 2.2526 60 60 60
3.4875 -3.7443 0.0476 60 60 60
-4.7846 12.2485 2.0503 60 60 60
0.9003 -0.0002 1.8398 60 60 60
2.3751 3.6846 -0.0012 60 60 60
-2.0204 -5.2371 0.0224 60 60 60
-9.9937 3.6736 -0.0284 60 60 60
0.8632 -0.0003 1.8393 60 60 60
-0.4858 16.0483 1.9687 60 60 60
-6.6480 10.8794 0.5429 60 60 60
3.5004 -5.1212 0.0657 60 60 60
-6.1127 -6.1377 0.0074 60 60 60
1.1776 -3.2780 0.0441 60 60 60
2.9165 -6.0683 0.0572 60 60 60
-31.6746 -19.4487 -0.1333 60 60 60
-13.9069 -17.8332 0.4744 60 60 60
-0.9297 16.0631 2.7342 60 60 60
0.1330 -0.1627 1.5108 60 60 60
-3.4108 -4.4449 0.0072 60 60 60
0.0686 -0.1403 1.5059 60 60 60
-8.8521 -1.3849 -0.0083 60 60 60
0.7666 -0.0007 1.8382 60 60 60
0.8165 -0.0005 1.8388 60 60 60
4.8869 4.0541 0.2186 60 60 60
1.1806 0.3161 1.4865 60 60 60
-3.6501 -3.5176 0.0120 60 60 60
27.5412 -29.9224 0.0702 60 60 60
-17.8742 13.6484 6.2051 60 60 60
-21.5159 14.8463 3.0958 60 60 60
0.7926 -0.0006 1.8385 60 60 60
5.1064 1.5455 0.0185 60 60 60
-10.7191 -30.0733 0.4378 60 60 60
0.8620 -0.0003 1.8393 60 60 60
-1.0845 2.8273 -0.0207 60 60 60
3.6882 11.1969 3.7377 60 60 60
-1.2514 3.8397 -0.0346 60 60 60
-25.9928 -26.6894 3.2113 60 60 60
0.7699 -0.0007 1.8383 60 60 60
0.6836 -0.0010 1.8372 60 60 60
3.5294 4.5202 0.2523 60 60 60
2.6463 3.2230 0.0048 60 60 60
0.7672 -0.0007 1.8382 60 60 60
-9.6065 12.2301 1.0401 60 60 60
12.9615 -22.1056 2.5850 60 60 60
0.7308 -0.0008 1.8378 60 60 60
0.7448 -0.0008 1.8380 60 60 60
2.2488 -4.1286 0.0541 60 60 60
-6.8580 10.9150 0.5308 60 60 60
-3.8001 3.7100 -0.0328 60 60 60
-9.9186 14.3772 5.1552 60 60 60
1.2612 -0.4132 1.5403 60 60 60
-1.8222 -3.9460 0.0324 60 60 60
2.8750 7.6826 3.1439 60 60 60
3.3159 -3.8740 0.0491 60 60 60
4.7672 -6.5357 0.0637 60 60 60
0.7045 -0.0009 1.8375 60 60 60
-1.7721 10.3488 0.4650 60 60 60
0.8126 -4.2118 0.0482 60 60 60
2.2442 -2.9100 0.0308 60 60 60
15.4083 11.7997 0.6651 60 60 60
-22.2248 14.1020 7.6115 60 60 60
-0.1068 15.9993 1.9592 60 60 60
0.4633 -0.4794 1.4944 60 60 60
-21.6771 15.1232 2.4766 60 60 60
-2.2424 -5.7299 0.0204 60 60 60
0.8668 -0.0003 1.8394 60 60 60
0.8225 -0.0005 1.8389 60 60 60
-1.0027 -4.6673 0.0353 60 60 60
-0.9371 2.8956 -0.0111 60 60 60
0.7111 -0.0009 1.8376 60 60 60
-5.2881 9.8554 0.4150 60 60 60
5.4215 3.6070 0.0222 60 60 60
1.1168 -0.4615 1.4900 60 60 60
4.3857 4.9676 0.2989 60 60 60
-14.3972 -17.6183 3.1907 60 60 60
-16.3309 -7.0305 0.4858 60 60 60
4.1112 3.3314 0.0174 60 60 60
-2.0053 16.1330 5.1026 60 60 60
-2.7041 5.0761 0.1790 60 60 60
-14.6633 5.9066 0.7030 60 60 60
-4.9918 -4.6842 0.0040 60 60 60
1.2570 3.6392 -0.0102 60 60 60
0.6278 -0.0012 1.8365 60 60 60
0.5590 0.4996 1.4922 60 60 60
0.7581 15.8443 3.4105 60 60 60
-7.8544 4.7557 -0.0261 60 60 60
4.4218 -1.6979 0.0182 60 60 60
0.7987 -5.5837 0.0585 60 60 60
-18.0634 2.8521 1.4236 60 60 60
5.5735 7.9464 3.0774 60 60 60
-3.1388 10.4682 0.6904 60 60 60
0.7126 -0.0009 1.8376 60 60 60
-2.6019 3.2072 -0.0234 60 60 60
-20.4912 -6.5119 0.7604 60 60 60
1.2036 0.3946 1.5276 60 60 60
5.0090 -0.3905 0.0247 60 60 60
2.1844 -3.1411 0.0386 60 60 60
-0.3848 -9.8847 0.1714 60 60 60
-0.5682 -3.1427 0.0340 60 60 60
-15.5255 14.2406 4.3557 60 60 60
8.0997 -52.4375 0.1165 60 60 60
5.7373 -1.9258 0.0120 60 60 60
10.2136 17.9598 3.6096 60 60 60
-8.9374 -0.4273 -0.0004 60 60 60
5.2699 3.0508 0.0103 60 60 60
1.1425 -3.1540 0.0172 60 60 60
1.8608 -5.8671 0.0600 60 60 60
-3.5328 -2.9997 0.0107 60 60 60
4.0133 5.7576 0.3687 60 60 60
-14.5816 5.2803 1.4846 60 60 60
0.7610 -0.0007 1.8382 60 60 60
-1.4378 4.0674 -0.0291 60 60 60
-28.0037 14.3906 1.1214 60 60 60
-4.4019 1.5354 -0.0076 60 60 60
5.2640 -0.8779 0.0163 60 60 60
1.4636 3.5715 -0.0040 60 60 60
1.1041 0.3869 1.4775 60 60 60
1.2333 -0.2522 1.4819 60 60 60
-7.3141 -18.9562 3.8485 60 60 60
0.3431 -0.0324 1.5949 60 60 60
-5.5150 -22.7343 5.1740 60 60 60
0.3482 -0.3589 1.5144 60 60 60
-11.9728 13.8211 5.3495 60 60 60
4.9458 -3.3002 0.0327 60 60 60
-10.4170 -0.8160 -0.0134 60 60 60
0.8737 -0.0003 1.8395 60 60 60
3.6523 -19.6184 3.0370 60 60 60
0.1434 -0.2373 1.5073 60 60 60
0.7717 -0.0007 1.8383 60 60 60
-47.9788 -12.1607 10.0514 60 60 60
0.6917 -0.0010 1.8373 60 60 60
3.9384 3.0600 0.0140 60 60 60
-4.2932 4.0071 -0.0435 60 60 60
-7.9420 4.6060 -0.0261 60 60 60
-6.8911 -0.6093 0.0003 60 60 60
5.9336 3.7927 0.1865 60 60 60
5.1414 1.4135 0.0204 60 60 60
-2.2881 -2.5577 0.0045 60 60 60
2.3607 0.6118 0.9966 60 60 60
2.0661 8.5113 0.4352 60 60 60
2.3523 -6.2606 0.0659 60 60 60
-1.8765 4.5326 0.0081 60 60 60
-3.2155 4.3481 -0.0456 60 60 60
-3.8276 -4.0625 0.0084 60 60 60
1.4643 11.6274 1.0722 60 60 60
3.6934 10.5748 1.3127 60 60 60
12.0958 11.8167 1.2459 60 60 60
4.4524 -3.2781 0.0398 60 60 60
-38.5608 -0.6744 9.3004 60 60 60
-24.2806 18.8442 2.5617 60 60 60
-7.7401 -6.3533 0.0048 60 60 60
0.8647 -0.0003 1.8394 60 60 60
5.5914 6.5996 0.3987 60 60 60
19.6334 -51.9992 3.6459 60 60 60
-0.3660 10.1754 0.7343 60 60 60
-0.0653 0.2441 1.4876 60 60 60
-2.4863 4.3111 -0.0367 60 60 60
-0.5311 3.3151 -0.0157 60 60 60
2.7686 11.3313 2.3917 60 60 60
10.5632 -21.7457 3.1357 60 60 60
-0.0700 10.1193 0.4958 60 60 60
1.2710 0.2523 1.4786 60 60 60
-15.0661 1.1735 -0.0056 60 60 60
-29.3106 -27.0156 3.3515 60 60 60
-3.5279 2.5521 -0.0131 60 60 60
5.6171 7.8884 0.4506 60 60 60
2.7477 -3.3015 0.0380 60 60 60
0.7215 -0.0009 1.8377 60 60 60
-2.0368 16.2172 2.0072 60 60 60
-12.3404 1.7403 -0.0110 60 60 60
0.2856 -0.0163 1.5508 60 60 60
4.3769 -9.3360 0.0449 60 60 60
0.9186 -0.0001 1.8400 60 60 60
0.8354 -0.0004 1.8390 60 60 60
1.0857 -0.4576 1.4862 60 60 60
1.2066 -0.3179 1.5162 60 60 60
-13.0769 17.4168 4.3704 60 60 60
4.7394 5.4280 0.3216 60 60 60
-7.4543 -8.2201 0.9039 60 60 60
-1.5156 -9.6914 0.1997 60 60 60
-0.3628 -3.2057 0.0369 60 60 60
0.1544 -0.2911 1.5040 60 60 60
-5.8602 2.3513 -0.0167 60 60 60
1.6442 4.3620 0.2079 60 60 60
-1.6307 -17.5385 4.7012 60 60 60
0.4810 15.9008 2.6867 60 60 60
0.8848 -0.4216 1.5716 60 60 60
3.0625 6.2104 2.1261 60 60 60
-2.5336 -6.2837 0.0221 60 60 60
-7.6767 -8.2417 0.3352 60 60 60
3.2118 3.7556 0.0146 60 60 60
8.2941 9.9667 1.7099 60 60 60
1.5152 0.4099 1.3731 60 60 60
3.1553 -5.3359 0.0625 60 60 60
30.6132 25.1173 6.7386 60 60 60
6.4704 -10.8049 0.7779 60 60 60
-1.2522 -4.5954 0.0316 60 60 60
2.8395 3.0719 0.0078 60 60 60
0.4462 0.4294 1.5055 60 60 60
9.2397 9.0120 0.5182 60 60 60
-7.8292 -8.0080 0.0683 60 60 60
-7.0843 -19.3340 3.8647 60 60 60
-4.0985 16.3729 4.4703 60 60 60
0.7042 -0.0009 1.8375 60 60 60
-38.7611 -3.9128 10.3172 60 60 60
0.8312 -0.0004 1.8390 60 60 60
0.7156 -0.0009 1.8376 60 60 60
-0.0079 -0.1238 1.4986 60 60 60
0.6943 -0.0010 1.8374 60 60 60
3.6807 3.7824 0.0147 60 60 60
6.9033 3.4670 0.0078 60 60 60
-5.1600 2.4641 -0.0212 60 60 60
1.1025 0.3714 1.4846 60 60 60
13.3163 8.5509 0.5092 60 60 60
5.0398 -3.1767 0.0305 60 60 60
1.9240 4.2916 0.1986 60 60 60
4.7815 -2.2811 0.0156 60 60 60
0.0964 0.2512 1.4979 60 60 60
-42.7801 -15.8538 10.4611 60 60 60
0.9425 0.0000 1.8402 60 60 60
0.6663 -0.0011 1.8370 60 60 60
3.1216 4.0530 0.1913 60 60 60
18.0524 12.9626 4.0213 60 60 60
5.0168 2.6730 0.0117 60 60 60
12.0449 19.1667 4.2803 60 60 60
3.0974 6.1846 0.3978 60 60 60
4.1968 -3.5504 0.0453 60 60 60
15.3971 -23.2165 4.5461 60 60 60
2.0561 4.5230 0.2258 60 60 60
-2.3599 -7.1053 0.0320 60 60 60
6.2709 -3.0364 0.0174 60 60 60
0.7717 -0.0007 1.8383 60 60 60
0.3725 -0.3684 1.5039 60 60 60
-2.5877 2.7729 -0.0237 60 60 60
-7.8964 7.2215 4.2500 60 60 60
0.8381 -0.0004 1.8391 60 60 60
2.7191 3.4684 0.0014 60 60 60
-16.6267 6.1165 3.1670 60 60 60
2.9335 11.2813 1.5819 60 60 60
0.4758 5.5914 0.2784 60 60 60
-2.8190 6.8139 0.3239 60 60 60
5.4378 -8.6228 0.0550 60 60 60
4.0270 -43.2820 0.4924 60 60 60
-42.2661 12.3887 10.3697 60 60 60
0.7610 -0.0007 1.8382 60 60 60
2.4937 7.4101 0.3961 60 60 60
-5.0388 0.6926 -0.0074 60 60 60
-0.0986 6.5719 0.3304 60 60 60
-0.8772 10.2811 0.4786 60 60 60
0.8877 -0.0002 1.8396 60 60 60
66.5905 -57.5964 3.9601 60 60 60
0.8680 -0.0003 1.8394 60 60 60
1.3608 4.7302 0.2305 60 60 60
-14.2703 17.7047 1.7708 60 60 60
0.9018 -0.0002 1.8398 60 60 60
-16.0763 6.4354 0.1761 60 60 60
2.5501 -6.8655 0.0678 60 60 60
5.6267 7.8415 2.8480 60 60 60
2.2817 -4.4559 0.0523 60 60 60
0.7123 -0.0009 1.8376 60 60 60
0.8109 -0.0005 1.8388 60 60 60
1.2713 -0.1794 1.4908 60 60 60
-8.4810 -8.1336 0.5755 60 60 60
6.3097 7.7572 3.0933 60 60 60
1.2630 0.1478 1.4860 60 60 60
7.5125 5.1999 0.2838 60 60 60
-73.7815 -0.8926 8.8789 60 60 60
-42.0376 15.0765 10.4793 60 60 60
-2.2534 16.2571 1.6280 60 60 60
0.2044 0.3323 1.5029 60 60 60
-16.5343 -7.0011 0.4744 60 60 60
13.1425 -23.0507 3.2263 60 60 60
-5.4485 1.4545 -0.0085 60 60 60
-7.8567 -0.0820 -0.0048 60 60 60
-8.6322 2.9063 -0.0163 60 60 60
6.7428 9.6209 0.9486 60 60 60
-13.1984 -18.0644 3.6727 60 60 60
1.3046 0.3560 1.4567 60 60 60
1.1775 -4.7638 0.0546 60 60 60
7.0081 5.5757 2.9004 60 60 60
1.3658 11.4721 4.0577 60 60 60
4.6438 -4.8921 0.0668 60 60 60
1.3899 0.0882 1.5051 60 60 60
0.8139 -0.0005 1.8388 60 60 60
3.2349 3.0534 0.0027 60 60 60
-0.8665 -19.1535 3.1088 60 60 60
0.8944 3.7109 -0.0127 60 60 60
19.3502 19.2536 2.1181 60 60 60
1.1891 -0.3407 1.5185 60 60 60
2.2348 4.0328 0.0070 60 60 60
-11.1894 17.3240 2.2353 60 60 60
0.7156 -0.0009 1.8376 60 60 60
0.1038 3.1101 -0.0177 60 60 60
-36.5598 14.8967 9.4880 60 60 60
5.0070 -0.4921 0.0213 60 60 60
5.4487 8.1810 2.8776 60 60 60
-4.5853 -8.5436 0.7400 60 60 60
13.1145 -19.5818 5.7692 60 60 60
-2.2600 2.6925 -0.0133 60 60 60
-33.9935 -30.1612 5.7322 60 60 60
0.8812 -0.0002 1.8395 60 60 60
0.5548 0.4990 1.4913 60 60 60
0.0045 -0.2479 1.4942 60 60 60
-16.8383 5.7350 3.1735 60 60 60
-9.8279 4.1040 -0.0284 60 60 60
-0.4286 3.3430 -0.0114 60 60 60
0.3207 0.3359 1.5079 60 60 60
-14.5062 -7.3486 0.9796 60 60 60
5.6471 0.5062 0.0225 60 60 60
0.6985 4.8691 0.2306 60 60 60
-2.7210 -4.8687 0.0234 60 60 60
5.6476 0.5354 0.0214 60 60 60
-6.3419 7.4692 0.3548 60 60 60
-2.6905 16.2587 3.1894 60 60 60
0.7338 -0.0008 1.8378 60 60 60
0.8629 -0.0003 1.8393 60 60 60
-4.3224 -1.6155 -0.0018 60 60 60
-14.5151 -3.1757 -0.0059 60 60 60
-1.6373 -8.6686 0.1496 60 60 60
0.8071 3.1655 -0.0253 60 60 60
3.9153 -17.1255 4.9346 60 60 60
5.3199 2.9673 0.0098 60 60 60
-46.0572 -40.5553 1.2985 60 60 60
-1.9622 4.5513 -0.0116 60 60 60
-3.0934 -5.3202 0.0140 60 60 60
-1.1637 2.8000 -0.0317 60 60 60
1.8635 4.1055 0.1564 60 60 60
-3.4730 2.6568 -0.0167 60 60 60
2.5096 4.0630 0.1844 60 60 60
-0.5158 -3.1684 0.0307 60 60 60
0.7153 -0.0009 1.8376 60 60 60
6.8283 8.1093 2.4472 60 60 60
1.5163 -0.3755 1.3958 60 60 60
-0.8705 16.0076 4.2453 60 60 60
1.2427 0.1501 1.4786 60 60 60
-4.5972 0.7673 -0.0158 60 60 60
0.3918 0.4365 1.5024 60 60 60
0.9246 -0.0001 1.8400 60 60 60
4.3948 3.9401 0.2058 60 60 60
-1.1883 -6.6108 0.0407 60 60 60
0.7371 -0.0008 1.8379 60 60 60
1.1351 0.3727 1.5243 60 60 60
0.8620 -0.0003 1.8393 60 60 60
2.0208 -3.2134 0.0423 60 60 60
0.8438 -0.0004 1.8391 60 60 60
-2.7272 4.6239 -0.0205 60 60 60
4.8777 -1.2407 0.0145 60 60 60
-2.6236 -5.5681 0.0170 60 60 60
0.1501 -0.0280 1.5235 60 60 60
5.0379 -7.4497 0.0639 60 60 60
-2.5171 5.9586 3.2588 60 60 60
0.2157 0.2079 1.5121 60 60 60
1.9330 -3.7213 0.0404 60 60 60
40.1165 30.7347 1.0551 60 60 60
-0.5354 7.1899 0.3610 60 60 60
0.7219 -0.0009 1.8377 60 60 60
-7.4568 2.8623 -0.0187 60 60 60
-2.7097 3.0828 -0.0200 60 60 60
0.7162 -0.0009 1.8376 60 60 60
0.8136 -0.0005 1.8388 60 60 60
0.8680 -0.0003 1.8394 60 60 60
0.0163 -0.3174 1.4903 60 60 60
-2.7441 6.8874 3.2549 60 60 60
44.5817 -52.4919 5.2301 60 60 60
0.8255 -0.0004 1.8389 60 60 60
-3.0138 -8.7181 0.9919 60 60 60
-4.4222 12.2055 2.0413 60 60 60
0.7759 -0.0006 1.8384 60 60 60
4.1579 -4.6570 0.0620 60 60 60
-1.0085 13.7072 4.2464 60 60 60
5.4589 1.5720 0.0177 60 60 60
5.7937 -8.3363 0.0593 60 60 60
0.7081 -0.0009 1.8375 60 60 60
9.2711 13.2380 3.5522 60 60 60
-26.7304 14.6693 6.2661 60 60 60
1.9172 11.4512 2.6816 60 60 60
-0.0454 -6.6942 0.0511 60 60 60
0.7936 4.3437 0.1759 60 60 60
0.6854 -0.0010 1.8372 60 60 60
-0.0734 0.2169 1.4875 60 60 60
-37.6908 12.0044 5.6781 60 60 60
-4.4002 -8.5765 0.7434 60 60 60
2.8537 -6.7423 0.0689 60 60 60
5.6485 2.2686 0.0127 60 60 60
0.0173 15.9601 2.7020 60 60 60
-6.0407 -3.2519 0.0039 60 60 60
0.7206 -0.0009 1.8377 60 60 60
-3.6074 5.1254 0.2001 60 60 60
2.1273 2.8731 -0.0059 60 60 60
-1.6914 16.2289 0.8497 60 60 60
-7.5290 16.7875 4.7919 60 60 60
-2.6883 4.1553 -0.0349 60 60 60
-1.1406 16.1021 2.3620 60 60 60
0.7989 -0.0006 1.8386 60 60 60
0.5609 15.9124 2.3123 60 60 60
-1.3873 -2.9805 0.0227 60 60 60
0.8536 -0.0003 1.8392 60 60 60
0.7275 -0.0008 1.8378 60 60 60
0.0465 0.3683 1.4835 60 60 60
-2.7736 -8.6895 0.3307 60 60 60
-8.3055 -5.6926 0.0045 60 60 60
-3.7776 -2.6859 0.0042 60 60 60
-4.6574 8.2981 0.3859 60 60 60
2.3757 2.9128 0.0031 60 60 60
2.7036 -6.8064 0.0681 60 60 60
-58.7535 -25.6422 4.6427 60 60 60
0.7105 -0.0009 1.8376 60 60 60
-1.6111 10.2133 0.4842 60 60 60
0.3779 0.4271 1.5008 60 60 60
-0.3718 3.8537 -0.0197 60 60 60
2.4144 -3.7554 0.0496 60 60 60
-0.3343 4.3576 0.1323 60 60 60
1.1125 0.3657 1.4823 60 60 60
1.2223 -0.2863 1.4800 60 60 60
-26.2034 -28.4560 0.4972 60 60 60
-9.5246 4.8408 -0.0335 60 60 60
3.6934 6.2013 1.7997 60 60 60
-6.2368 -8.3349 0.4281 60 60 60
1.2658 -0.3280 1.5214 60 60 60
-5.8510 -1.9260 0.0031 60 60 60
0.5318 -10.0567 0.3692 60 60 60
-8.7071 -18.0297 3.8665 60 60 60
-4.1233 16.4634 1.6593 60 60 60
-0.0837 0.1335 1.4908 60 60 60
7.2046 -5.3184 0.0624 60 60 60
-27.9263 -27.6505 4.2357 60 60 60
1.1304 0.3832 1.5227 60 60 60
-2.1229 10.4752 0.7028 60 60 60
1.2200 -0.2668 1.4863 60 60 60
0.8689 -0.0003 1.8394 60 60 60
0.5165 0.4749 1.4909 60 60 60
0.0132 -0.0282 1.5969 60 60 60
4.3620 2.4609 0.0163 60 60 60
-3.9203 16.3755 3.6495 60 60 60
0.7926 -0.0006 1.8385 60 60 60
3.4510 -3.3991 0.0414 60 60 60
-1.7034 3.1829 -0.0099 60 60 60
0.8885 11.5281 3.7980 60 60 60
1.3831 6.4614 0.3166 60 60 60
-7.3150 -6.7982 0.0029 60 60 60
0.8145 -0.0005 1.8388 60 60 60
5.2677 5.0689 0.2937 60 60 60
3.3803 -8.4325 0.0560 60 60 60
0.8584 -0.0003 1.8393 60 60 60
1.1809 -5.5375 0.0583 60 60 60
2.4740 3.6153 0.0041 60 60 60
22.9149 15.7549 0.7531 60 60 60
-0.7450 -5.1150 0.0409 60 60 60
-6.4803 -22.1015 2.9696 60 60 60
5.7054 -2.0145 0.0117 60 60 60
4.7752 7.2979 0.4001 60 60 60
1.1727 0.4766 1.5335 60 60 60
1.0172 4.2077 0.0893 60 60 60
0.7628 -0.0007 1.8382 60 60 60
-3.1739 2.4388 -0.0090 60 60 60
-5.7546 2.6644 -0.0212 60 60 60
0.8151 -0.0005 1.8388 60 60 60
-6.5901 4.7034 -0.0346 60 60 60
3.2199 7.0676 0.3974 60 60 60
-12.0309 6.2195 0.1807 60 60 60
0.7681 -0.0007 1.8383 60 60 60
-13.4784 12.3664 0.9366 60 60 60
0.8515 -0.0003 1.8392 60 60 60
-0.0582 0.2540 1.4889 60 60 60
-4.5432 6.3493 0.2375 60 60 60
7.7594 4.9453 0.2682 60 60 60
6.7340 -3.3835 0.0265 60 60 60
-0.9874 3.9406 -0.0273 60 60 60
-31.1278 12.8247 1.0851 60 60 60
0.7353 -0.0008 1.8379 60 60 60
3.1401 -3.9988 0.0493 60 60 60
4.2399 6.3334 3.1581 60 60 60
-5.2456 2.2155 -0.0171 60 60 60
1.1730 0.4711 1.5350 60 60 60
1.8181 3.9811 -0.0193 60 60 60
0.3980 0.2226 1.5394 60 60 60
0.2448 0.5061 1.4716 60 60 60
-60.4334 -81.9894 17.2491 60 60 60
-0.2807 -10.0689 0.8592 60 60 60
8.3910 -10.9690 0.9615 60 60 60
0.2697 -4.5147 0.0471 60 60 60
2.2673 -3.3218 0.0414 60 60 60
0.6986 3.7331 -0.0132 60 60 60
-4.3650 -8.5069 0.2797 60 60 60
6.3683 -9.7865 0.0523 60 60 60
1.3333 -0.1763 1.4748 60 60 60
-0.9941 -33.8828 0.8915 60 60 60
-0.0164 -3.9511 0.0379 60 60 60
-8.7373 -7.7818 0.0036 60 60 60
0.3846 -0.2144 1.5539 60 60 60
2.8432 2.7945 0.0075 60 60 60
64.8908 -72.4439 4.3465 60 60 60
-37.3426 12.6429 6.6091 60 60 60
-1.8339 -3.2681 0.0188 60 60 60
-5.0181 9.9311 0.4195 60 60 60
0.7756 -0.0006 1.8383 60 60 60
-15.0183 1.9124 -0.0060 60 60 60
5.9988 -10.6613 0.2561 60 60 60
0.8530 -0.0003 1.8392 60 60 60
1.7425 5.7488 0.3114 60 60 60
0.6828 0.4572 1.5644 60 60 60
-18.2043 2.7474 0.0737 60 60 60
4.7112 -5.6141 0.0715 60 60 60
4.4886 -9.7818 0.2142 60 60 60
5.8431 -4.5054 0.0633 60 60 60
0.1635 -0.0115 1.5293 60 60 60
-5.3148 2.0013 -0.0149 60 60 60
1.9684 6.8512 0.3616 60 60 60
-1.8166 -2.6661 0.0155 60 60 60
-5.2626 -1.7949 0.0021 60 60 60
-15.4264 13.4564 2.8068 60 60 60
0.8818 -0.0002 1.8396 60 60 60
-0.2125 -9.8990 0.1678 60 60 60
2.8596 -3.2287 0.0356 60 60 60
