ply
format ascii 1.0
element vertex 1468
property float x
property float y
property float z
property uchar red
property uchar green
property uchar blue
end_header
29.8437 -7.6776 0.7490 255 40 40
29.8610 -7.6772 0.7490 255 40 40
29.8783 -7.6769 0.7490 255 40 40
29.8956 -7.6765 0.7490 255 40 40
29.9129 -7.6761 0.7490 255 40 40
29.9302 -7.6758 0.7490 255 40 40
29.9475 -7.6754 0.7490 255 40 40
29.9648 -7.6750 0.7490 255 40 40
29.9821 -7.6747 0.7490 255 40 40
29.9994 -7.6743 0.7490 255 40 40
30.0167 -7.6740 0.7490 255 40 40
30.0340 -7.6736 0.7490 255 40 40
30.0513 -7.6732 0.7490 255 40 40
30.0686 -7.6729 0.7490 255 40 40
30.0859 -7.6725 0.7490 255 40 40
30.1032 -7.6722 0.7490 255 40 40
30.1205 -7.6718 0.7490 255 40 40
30.1378 -7.6714 0.7490 255 40 40
30.1551 -7.6711 0.7490 255 40 40
30.1724 -7.6707 0.7490 255 40 40
30.1897 -7.6704 0.7490 255 40 40
30.2070 -7.6700 0.7490 255 40 40
30.2242 -7.6696 0.7490 255 40 40
30.2415 -7.6693 0.7490 255 40 40
30.2588 -7.6689 0.7490 255 40 40
30.2761 -7.6685 0.7490 255 40 40
30.2934 -7.6682 0.7490 255 40 40
30.3107 -7.6678 0.7490 255 40 40
30.3280 -7.6675 0.7490 255 40 40
30.3453 -7.6671 0.7490 255 40 40
30.3626 -7.6667 0.7490 255 40 40
30.3799 -7.6664 0.7490 255 40 40
30.3972 -7.6660 0.7490 255 40 40
30.4145 -7.6657 0.7490 255 40 40
30.4318 -7.6653 0.7490 255 40 40
30.4491 -7.6649 0.7490 255 40 40
30.4664 -7.6646 0.7490 255 40 40
30.4837 -7.6642 0.7490 255 40 40
30.5010 -7.6638 0.7490 255 40 40
30.5183 -7.6635 0.7490 255 40 40
30.5356 -7.6631 0.7490 255 40 40
30.5529 -7.6628 0.7490 255 40 40
30.5702 -7.6624 0.7490 255 40 40
30.5875 -7.6620 0.7490 255 40 40
30.6048 -7.6617 0.7490 255 40 40
30.6221 -7.6613 0.7490 255 40 40
30.6393 -7.6610 0.7490 255 40 40
30.6566 -7.6606 0.7490 255 40 40
30.6739 -7.6602 0.7490 255 40 40
30.6912 -7.6599 0.7490 255 40 40
30.7085 -7.6595 0.7490 255 40 40
30.7258 -7.6592 0.7490 255 40 40
30.7431 -7.6588 0.7490 255 40 40
30.7604 -7.6584 0.7490 255 40 40
30.7777 -7.6581 0.7490 255 40 40
30.7950 -7.6577 0.7490 255 40 40
30.8123 -7.6573 0.7490 255 40 40
30.8296 -7.6570 0.7490 255 40 40
30.8296 -7.6570 0.7490 255 40 40
30.8284 -7.5972 0.7490 255 40 40
30.8271 -7.5375 0.7490 255 40 40
30.8259 -7.4778 0.7490 255 40 40
30.8246 -7.4180 0.7490 255 40 40
30.8234 -7.3583 0.7490 255 40 40
30.8221 -7.2985 0.7490 255 40 40
30.8209 -7.2388 0.7490 255 40 40
30.8196 -7.1790 0.7490 255 40 40
30.8184 -7.1193 0.7490 255 40 40
30.8171 -7.0595 0.7490 255 40 40
30.8159 -6.9998 0.7490 255 40 40
30.8146 -6.9400 0.7490 255 40 40
30.8134 -6.8803 0.7490 255 40 40
30.8121 -6.8206 0.7490 255 40 40
30.8109 -6.7608 0.7490 255 40 40
30.8096 -6.7011 0.7490 255 40 40
30.8084 -6.6413 0.7490 255 40 40
30.8071 -6.5816 0.7490 255 40 40
30.8059 -6.5218 0.7490 255 40 40
30.8046 -6.4621 0.7490 255 40 40
30.8034 -6.4023 0.7490 255 40 40
30.8021 -6.3426 0.7490 255 40 40
30.8009 -6.2828 0.7490 255 40 40
30.7996 -6.2231 0.7490 255 40 40
30.7984 -6.1634 0.7490 255 40 40
30.7972 -6.1036 0.7490 255 40 40
30.7959 -6.0439 0.7490 255 40 40
30.7947 -5.9841 0.7490 255 40 40
30.7934 -5.9244 0.7490 255 40 40
30.7922 -5.8646 0.7490 255 40 40
30.7909 -5.8049 0.7490 255 40 40
30.7897 -5.7451 0.7490 255 40 40
30.7884 -5.6854 0.7490 255 40 40
30.7872 -5.6257 0.7490 255 40 40
30.7859 -5.5659 0.7490 255 40 40
30.7847 -5.5062 0.7490 255 40 40
30.7834 -5.4464 0.7490 255 40 40
30.7822 -5.3867 0.7490 255 40 40
30.7809 -5.3269 0.7490 255 40 40
30.7797 -5.2672 0.7490 255 40 40
30.7784 -5.2074 0.7490 255 40 40
30.7772 -5.1477 0.7490 255 40 40
30.7759 -5.0879 0.7490 255 40 40
30.7747 -5.0282 0.7490 255 40 40
30.7734 -4.9685 0.7490 255 40 40
30.7722 -4.9087 0.7490 255 40 40
30.7709 -4.8490 0.7490 255 40 40
30.7697 -4.7892 0.7490 255 40 40
30.7684 -4.7295 0.7490 255 40 40
30.7672 -4.6697 0.7490 255 40 40
30.7660 -4.6100 0.7490 255 40 40
30.7647 -4.5502 0.7490 255 40 40
30.7635 -4.4905 0.7490 255 40 40
30.7622 -4.4308 0.7490 255 40 40
30.7610 -4.3710 0.7490 255 40 40
30.7597 -4.3113 0.7490 255 40 40
30.7585 -4.2515 0.7490 255 40 40
30.7572 -4.1918 0.7490 255 40 40
30.7560 -4.1320 0.7490 255 40 40
30.7547 -4.0723 0.7490 255 40 40
30.7535 -4.0125 0.7490 255 40 40
30.7522 -3.9528 0.7490 255 40 40
30.7510 -3.8930 0.7490 255 40 40
30.7497 -3.8333 0.7490 255 40 40
30.7485 -3.7736 0.7490 255 40 40
30.7472 -3.7138 0.7490 255 40 40
30.7460 -3.6541 0.7490 255 40 40
30.7447 -3.5943 0.7490 255 40 40
30.7435 -3.5346 0.7490 255 40 40
30.7422 -3.4748 0.7490 255 40 40
30.7410 -3.4151 0.7490 255 40 40
30.7397 -3.3553 0.7490 255 40 40
30.7385 -3.2956 0.7490 255 40 40
30.7372 -3.2359 0.7490 255 40 40
30.7360 -3.1761 0.7490 255 40 40
30.7348 -3.1164 0.7490 255 40 40
30.7335 -3.0566 0.7490 255 40 40
30.7323 -2.9969 0.7490 255 40 40
30.7310 -2.9371 0.7490 255 40 40
30.7298 -2.8774 0.7490 255 40 40
30.7285 -2.8176 0.7490 255 40 40
30.7273 -2.7579 0.7490 255 40 40
30.7260 -2.6981 0.7490 255 40 40
30.7248 -2.6384 0.7490 255 40 40
30.7235 -2.5787 0.7490 255 40 40
30.7223 -2.5189 0.7490 255 40 40
30.7210 -2.4592 0.7490 255 40 40
30.7198 -2.3994 0.7490 255 40 40
30.7185 -2.3397 0.7490 255 40 40
30.7173 -2.2799 0.7490 255 40 40
30.7160 -2.2202 0.7490 255 40 40
30.7148 -2.1604 0.7490 255 40 40
30.7135 -2.1007 0.7490 255 40 40
30.7123 -2.0410 0.7490 255 40 40
30.7110 -1.9812 0.7490 255 40 40
30.7098 -1.9215 0.7490 255 40 40
30.7085 -1.8617 0.7490 255 40 40
30.7073 -1.8020 0.7490 255 40 40
30.7061 -1.7422 0.7490 255 40 40
30.7048 -1.6825 0.7490 255 40 40
30.7036 -1.6227 0.7490 255 40 40
30.7023 -1.5630 0.7490 255 40 40
30.7011 -1.5032 0.7490 255 40 40
30.6998 -1.4435 0.7490 255 40 40
30.6986 -1.3838 0.7490 255 40 40
30.6973 -1.3240 0.7490 255 40 40
30.6961 -1.2643 0.7490 255 40 40
30.6948 -1.2045 0.7490 255 40 40
30.6936 -1.1448 0.7490 255 40 40
30.6923 -1.0850 0.7490 255 40 40
30.6911 -1.0253 0.7490 255 40 40
30.6898 -0.9655 0.7490 255 40 40
30.6886 -0.9058 0.7490 255 40 40
30.6873 -0.8461 0.7490 255 40 40
30.6861 -0.7863 0.7490 255 40 40
30.6848 -0.7266 0.7490 255 40 40
30.6836 -0.6668 0.7490 255 40 40
30.6823 -0.6071 0.7490 255 40 40
30.6811 -0.5473 0.7490 255 40 40
30.6798 -0.4876 0.7490 255 40 40
30.6786 -0.4278 0.7490 255 40 40
30.6773 -0.3681 0.7490 255 40 40
30.6761 -0.3083 0.7490 255 40 40
30.6749 -0.2486 0.7490 255 40 40
30.6736 -0.1889 0.7490 255 40 40
30.6724 -0.1291 0.7490 255 40 40
30.6711 -0.0694 0.7490 255 40 40
30.6699 -0.0096 0.7490 255 40 40
30.6686 0.0501 0.7490 255 40 40
30.6674 0.1099 0.7490 255 40 40
30.6661 0.1696 0.7490 255 40 40
30.6649 0.2294 0.7490 255 40 40
30.6636 0.2891 0.7490 255 40 40
30.6624 0.3488 0.7490 255 40 40
30.6611 0.4086 0.7490 255 40 40
30.6599 0.4683 0.7490 255 40 40
30.6586 0.5281 0.7490 255 40 40
30.6574 0.5878 0.7490 255 40 40
30.6561 0.6476 0.7490 255 40 40
30.6549 0.7073 0.7490 255 40 40
30.6536 0.7671 0.7490 255 40 40
30.6524 0.8268 0.7490 255 40 40
30.6511 0.8866 0.7490 255 40 40
30.6499 0.9463 0.7490 255 40 40
30.6486 1.0060 0.7490 255 40 40
30.6474 1.0658 0.7490 255 40 40
30.6461 1.1255 0.7490 255 40 40
30.6449 1.1853 0.7490 255 40 40
30.6437 1.2450 0.7490 255 40 40
30.6424 1.3048 0.7490 255 40 40
30.6412 1.3645 0.7490 255 40 40
30.6399 1.4243 0.7490 255 40 40
30.6387 1.4840 0.7490 255 40 40
30.6374 1.5437 0.7490 255 40 40
30.6362 1.6035 0.7490 255 40 40
30.6349 1.6632 0.7490 255 40 40
30.6337 1.7230 0.7490 255 40 40
30.6324 1.7827 0.7490 255 40 40
30.6312 1.8425 0.7490 255 40 40
30.6299 1.9022 0.7490 255 40 40
30.6287 1.9620 0.7490 255 40 40
30.6274 2.0217 0.7490 255 40 40
30.6262 2.0815 0.7490 255 40 40
30.6249 2.1412 0.7490 255 40 40
30.6237 2.2009 0.7490 255 40 40
30.6237 2.2009 0.7490 255 40 40
30.6064 2.2006 0.7490 255 40 40
30.5891 2.2002 0.7490 255 40 40
30.5718 2.1999 0.7490 255 40 40
30.5545 2.1995 0.7490 255 40 40
30.5372 2.1991 0.7490 255 40 40
30.5199 2.1988 0.7490 255 40 40
30.5026 2.1984 0.7490 255 40 40
30.4853 2.1981 0.7490 255 40 40
30.4680 2.1977 0.7490 255 40 40
30.4507 2.1973 0.7490 255 40 40
30.4334 2.1970 0.7490 255 40 40
30.4161 2.1966 0.7490 255 40 40
30.3988 2.1962 0.7490 255 40 40
30.3815 2.1959 0.7490 255 40 40
30.3642 2.1955 0.7490 255 40 40
30.3470 2.1952 0.7490 255 40 40
30.3297 2.1948 0.7490 255 40 40
30.3124 2.1944 0.7490 255 40 40
30.2951 2.1941 0.7490 255 40 40
30.2778 2.1937 0.7490 255 40 40
30.2605 2.1934 0.7490 255 40 40
30.2432 2.1930 0.7490 255 40 40
30.2259 2.1926 0.7490 255 40 40
30.2086 2.1923 0.7490 255 40 40
30.1913 2.1919 0.7490 255 40 40
30.1740 2.1915 0.7490 255 40 40
30.1567 2.1912 0.7490 255 40 40
30.1394 2.1908 0.7490 255 40 40
30.1221 2.1905 0.7490 255 40 40
30.1048 2.1901 0.7490 255 40 40
30.0875 2.1897 0.7490 255 40 40
30.0702 2.1894 0.7490 255 40 40
30.0529 2.1890 0.7490 255 40 40
30.0356 2.1887 0.7490 255 40 40
30.0183 2.1883 0.7490 255 40 40
30.0010 2.1879 0.7490 255 40 40
29.9837 2.1876 0.7490 255 40 40
29.9664 2.1872 0.7490 255 40 40
29.9492 2.1869 0.7490 255 40 40
29.9319 2.1865 0.7490 255 40 40
29.9146 2.1861 0.7490 255 40 40
29.8973 2.1858 0.7490 255 40 40
29.8800 2.1854 0.7490 255 40 40
29.8627 2.1850 0.7490 255 40 40
29.8454 2.1847 0.7490 255 40 40
29.8281 2.1843 0.7490 255 40 40
29.8108 2.1840 0.7490 255 40 40
29.7935 2.1836 0.7490 255 40 40
29.7762 2.1832 0.7490 255 40 40
29.7589 2.1829 0.7490 255 40 40
29.7416 2.1825 0.7490 255 40 40
29.7243 2.1822 0.7490 255 40 40
29.7070 2.1818 0.7490 255 40 40
29.6897 2.1814 0.7490 255 40 40
29.6724 2.1811 0.7490 255 40 40
29.6551 2.1807 0.7490 255 40 40
29.6378 2.1804 0.7490 255 40 40
29.6205 2.1800 0.7490 255 40 40
29.6032 2.1796 0.7490 255 40 40
29.5859 2.1793 0.7490 255 40 40
29.5686 2.1789 0.7490 255 40 40
29.5513 2.1785 0.7490 255 40 40
29.5341 2.1782 0.7490 255 40 40
29.5168 2.1778 0.7490 255 40 40
29.4995 2.1775 0.7490 255 40 40
29.4822 2.1771 0.7490 255 40 40
29.4649 2.1767 0.7490 255 40 40
29.4476 2.1764 0.7490 255 40 40
29.4303 2.1760 0.7490 255 40 40
29.4130 2.1757 0.7490 255 40 40
29.3957 2.1753 0.7490 255 40 40
29.3784 2.1749 0.7490 255 40 40
29.3611 2.1746 0.7490 255 40 40
29.3438 2.1742 0.7490 255 40 40
29.3265 2.1738 0.7490 255 40 40
29.3092 2.1735 0.7490 255 40 40
29.2919 2.1731 0.7490 255 40 40
29.2746 2.1728 0.7490 255 40 40
29.2573 2.1724 0.7490 255 40 40
29.2400 2.1720 0.7490 255 40 40
29.2227 2.1717 0.7490 255 40 40
29.2054 2.1713 0.7490 255 40 40
29.1881 2.1710 0.7490 255 40 40
29.1708 2.1706 0.7490 255 40 40
29.1535 2.1702 0.7490 255 40 40
29.1362 2.1699 0.7490 255 40 40
29.1190 2.1695 0.7490 255 40 40
29.1017 2.1692 0.7490 255 40 40
29.0844 2.1688 0.7490 255 40 40
29.0671 2.1684 0.7490 255 40 40
29.0498 2.1681 0.7490 255 40 40
29.0325 2.1677 0.7490 255 40 40
29.0152 2.1673 0.7490 255 40 40
28.9979 2.1670 0.7490 255 40 40
28.9806 2.1666 0.7490 255 40 40
28.9633 2.1663 0.7490 255 40 40
28.9460 2.1659 0.7490 255 40 40
28.9287 2.1655 0.7490 255 40 40
28.9114 2.1652 0.7490 255 40 40
28.8941 2.1648 0.7490 255 40 40
28.8768 2.1645 0.7490 255 40 40
28.8595 2.1641 0.7490 255 40 40
28.8422 2.1637 0.7490 255 40 40
28.8249 2.1634 0.7490 255 40 40
28.8076 2.1630 0.7490 255 40 40
28.7903 2.1626 0.7490 255 40 40
28.7730 2.1623 0.7490 255 40 40
28.7557 2.1619 0.7490 255 40 40
28.7384 2.1616 0.7490 255 40 40
28.7212 2.1612 0.7490 255 40 40
28.7039 2.1608 0.7490 255 40 40
28.6866 2.1605 0.7490 255 40 40
28.6693 2.1601 0.7490 255 40 40
28.6520 2.1598 0.7490 255 40 40
28.6347 2.1594 0.7490 255 40 40
28.6174 2.1590 0.7490 255 40 40
28.6001 2.1587 0.7490 255 40 40
28.5828 2.1583 0.7490 255 40 40
28.5655 2.1580 0.7490 255 40 40
28.5482 2.1576 0.7490 255 40 40
28.5309 2.1572 0.7490 255 40 40
28.5136 2.1569 0.7490 255 40 40
28.4963 2.1565 0.7490 255 40 40
28.4790 2.1561 0.7490 255 40 40
28.4617 2.1558 0.7490 255 40 40
28.4444 2.1554 0.7490 255 40 40
28.4271 2.1551 0.7490 255 40 40
28.4098 2.1547 0.7490 255 40 40
28.3925 2.1543 0.7490 255 40 40
28.3752 2.1540 0.7490 255 40 40
28.3579 2.1536 0.7490 255 40 40
28.3406 2.1533 0.7490 255 40 40
28.3233 2.1529 0.7490 255 40 40
28.3061 2.1525 0.7490 255 40 40
28.2888 2.1522 0.7490 255 40 40
28.2715 2.1518 0.7490 255 40 40
28.2542 2.1514 0.7490 255 40 40
28.2369 2.1511 0.7490 255 40 40
28.2196 2.1507 0.7490 255 40 40
28.2023 2.1504 0.7490 255 40 40
28.1850 2.1500 0.7490 255 40 40
28.1677 2.1496 0.7490 255 40 40
28.1504 2.1493 0.7490 255 40 40
28.1331 2.1489 0.7490 255 40 40
28.1158 2.1486 0.7490 255 40 40
28.0985 2.1482 0.7490 255 40 40
28.0812 2.1478 0.7490 255 40 40
28.0639 2.1475 0.7490 255 40 40
28.0466 2.1471 0.7490 255 40 40
28.0293 2.1468 0.7490 255 40 40
28.0120 2.1464 0.7490 255 40 40
27.9947 2.1460 0.7490 255 40 40
27.9774 2.1457 0.7490 255 40 40
27.9601 2.1453 0.7490 255 40 40
27.9428 2.1449 0.7490 255 40 40
27.9255 2.1446 0.7490 255 40 40
27.9083 2.1442 0.7490 255 40 40
27.8910 2.1439 0.7490 255 40 40
27.8737 2.1435 0.7490 255 40 40
27.8564 2.1431 0.7490 255 40 40
27.8391 2.1428 0.7490 255 40 40
27.8218 2.1424 0.7490 255 40 40
27.8045 2.1421 0.7490 255 40 40
27.7872 2.1417 0.7490 255 40 40
27.7699 2.1413 0.7490 255 40 40
27.7699 2.1413 3.7574 255 40 40
27.7711 2.0816 3.7574 255 40 40
27.7724 2.0218 3.7574 255 40 40
27.7736 1.9621 3.7574 255 40 40
27.7749 1.9024 3.7574 255 40 40
27.7761 1.8426 3.7574 255 40 40
27.7774 1.7829 3.7574 255 40 40
27.7786 1.7231 3.7574 255 40 40
27.7799 1.6634 3.7574 255 40 40
27.7811 1.6036 3.7574 255 40 40
27.7824 1.5439 3.7574 255 40 40
27.7836 1.4841 3.7574 255 40 40
27.7849 1.4244 3.7574 255 40 40
27.7861 1.3646 3.7574 255 40 40
27.7874 1.3049 3.7574 255 40 40
27.7886 1.2452 3.7574 255 40 40
27.7899 1.1854 3.7574 255 40 40
27.7911 1.1257 3.7574 255 40 40
27.7923 1.0659 3.7574 255 40 40
27.7936 1.0062 3.7574 255 40 40
27.7948 0.9464 3.7574 255 40 40
27.7961 0.8867 3.7574 255 40 40
27.7973 0.8269 3.7574 255 40 40
27.7986 0.7672 3.7574 255 40 40
27.7998 0.7075 3.7574 255 40 40
27.8011 0.6477 3.7574 255 40 40
27.8023 0.5880 3.7574 255 40 40
27.8036 0.5282 3.7574 255 40 40
27.8048 0.4685 3.7574 255 40 40
27.8061 0.4087 3.7574 255 40 40
27.8073 0.3490 3.7574 255 40 40
27.8086 0.2892 3.7574 255 40 40
27.8098 0.2295 3.7574 255 40 40
27.8111 0.1697 3.7574 255 40 40
27.8123 0.1100 3.7574 255 40 40
27.8136 0.0503 3.7574 255 40 40
27.8148 -0.0095 3.7574 255 40 40
27.8161 -0.0692 3.7574 255 40 40
27.8173 -0.1290 3.7574 255 40 40
27.8186 -0.1887 3.7574 255 40 40
27.8198 -0.2485 3.7574 255 40 40
27.8211 -0.3082 3.7574 255 40 40
27.8223 -0.3680 3.7574 255 40 40
27.8235 -0.4277 3.7574 255 40 40
27.8248 -0.4874 3.7574 255 40 40
27.8260 -0.5472 3.7574 255 40 40
27.8273 -0.6069 3.7574 255 40 40
27.8285 -0.6667 3.7574 255 40 40
27.8298 -0.7264 3.7574 255 40 40
27.8310 -0.7862 3.7574 255 40 40
27.8323 -0.8459 3.7574 255 40 40
27.8335 -0.9057 3.7574 255 40 40
27.8348 -0.9654 3.7574 255 40 40
27.8360 -1.0252 3.7574 255 40 40
27.8373 -1.0849 3.7574 255 40 40
27.8385 -1.1446 3.7574 255 40 40
27.8398 -1.2044 3.7574 255 40 40
27.8410 -1.2641 3.7574 255 40 40
27.8423 -1.3239 3.7574 255 40 40
27.8435 -1.3836 3.7574 255 40 40
27.8448 -1.4434 3.7574 255 40 40
27.8460 -1.5031 3.7574 255 40 40
27.8473 -1.5629 3.7574 255 40 40
27.8485 -1.6226 3.7574 255 40 40
27.8498 -1.6823 3.7574 255 40 40
27.8510 -1.7421 3.7574 255 40 40
27.8523 -1.8018 3.7574 255 40 40
27.8535 -1.8616 3.7574 255 40 40
27.8547 -1.9213 3.7574 255 40 40
27.8560 -1.9811 3.7574 255 40 40
27.8572 -2.0408 3.7574 255 40 40
27.8585 -2.1006 3.7574 255 40 40
27.8597 -2.1603 3.7574 255 40 40
27.8610 -2.2201 3.7574 255 40 40
27.8622 -2.2798 3.7574 255 40 40
27.8635 -2.3395 3.7574 255 40 40
27.8647 -2.3993 3.7574 255 40 40
27.8660 -2.4590 3.7574 255 40 40
27.8672 -2.5188 3.7574 255 40 40
27.8685 -2.5785 3.7574 255 40 40
27.8697 -2.6383 3.7574 255 40 40
27.8710 -2.6980 3.7574 255 40 40
27.8722 -2.7578 3.7574 255 40 40
27.8735 -2.8175 3.7574 255 40 40
27.8747 -2.8772 3.7574 255 40 40
27.8760 -2.9370 3.7574 255 40 40
27.8772 -2.9967 3.7574 255 40 40
27.8785 -3.0565 3.7574 255 40 40
27.8797 -3.1162 3.7574 255 40 40
27.8810 -3.1760 3.7574 255 40 40
27.8822 -3.2357 3.7574 255 40 40
27.8834 -3.2955 3.7574 255 40 40
27.8847 -3.3552 3.7574 255 40 40
27.8859 -3.4150 3.7574 255 40 40
27.8872 -3.4747 3.7574 255 40 40
27.8884 -3.5344 3.7574 255 40 40
27.8897 -3.5942 3.7574 255 40 40
27.8909 -3.6539 3.7574 255 40 40
27.8922 -3.7137 3.7574 255 40 40
27.8934 -3.7734 3.7574 255 40 40
27.8947 -3.8332 3.7574 255 40 40
27.8959 -3.8929 3.7574 255 40 40
27.8972 -3.9527 3.7574 255 40 40
27.8984 -4.0124 3.7574 255 40 40
27.8997 -4.0722 3.7574 255 40 40
27.9009 -4.1319 3.7574 255 40 40
27.9022 -4.1916 3.7574 255 40 40
27.9034 -4.2514 3.7574 255 40 40
27.9047 -4.3111 3.7574 255 40 40
27.9059 -4.3709 3.7574 255 40 40
27.9072 -4.4306 3.7574 255 40 40
27.9084 -4.4904 3.7574 255 40 40
27.9097 -4.5501 3.7574 255 40 40
27.9109 -4.6099 3.7574 255 40 40
27.9122 -4.6696 3.7574 255 40 40
27.9134 -4.7293 3.7574 255 40 40
27.9146 -4.7891 3.7574 255 40 40
27.9159 -4.8488 3.7574 255 40 40
27.9171 -4.9086 3.7574 255 40 40
27.9184 -4.9683 3.7574 255 40 40
27.9196 -5.0281 3.7574 255 40 40
27.9209 -5.0878 3.7574 255 40 40
27.9221 -5.1476 3.7574 255 40 40
27.9234 -5.2073 3.7574 255 40 40
27.9246 -5.2671 3.7574 255 40 40
27.9259 -5.3268 3.7574 255 40 40
27.9271 -5.3865 3.7574 255 40 40
27.9284 -5.4463 3.7574 255 40 40
27.9296 -5.5060 3.7574 255 40 40
27.9309 -5.5658 3.7574 255 40 40
27.9321 -5.6255 3.7574 255 40 40
27.9334 -5.6853 3.7574 255 40 40
27.9346 -5.7450 3.7574 255 40 40
27.9359 -5.8048 3.7574 255 40 40
27.9371 -5.8645 3.7574 255 40 40
27.9384 -5.9242 3.7574 255 40 40
27.9396 -5.9840 3.7574 255 40 40
27.9409 -6.0437 3.7574 255 40 40
27.9421 -6.1035 3.7574 255 40 40
27.9434 -6.1632 3.7574 255 40 40
27.9446 -6.2230 3.7574 255 40 40
27.9458 -6.2827 3.7574 255 40 40
27.9471 -6.3425 3.7574 255 40 40
27.9483 -6.4022 3.7574 255 40 40
27.9496 -6.4620 3.7574 255 40 40
27.9508 -6.5217 3.7574 255 40 40
27.9521 -6.5814 3.7574 255 40 40
27.9533 -6.6412 3.7574 255 40 40
27.9546 -6.7009 3.7574 255 40 40
27.9558 -6.7607 3.7574 255 40 40
27.9571 -6.8204 3.7574 255 40 40
27.9583 -6.8802 3.7574 255 40 40
27.9596 -6.9399 3.7574 255 40 40
27.9608 -6.9997 3.7574 255 40 40
27.9621 -7.0594 3.7574 255 40 40
27.9633 -7.1191 3.7574 255 40 40
27.9646 -7.1789 3.7574 255 40 40
27.9658 -7.2386 3.7574 255 40 40
27.9671 -7.2984 3.7574 255 40 40
27.9683 -7.3581 3.7574 255 40 40
27.9696 -7.4179 3.7574 255 40 40
27.9708 -7.4776 3.7574 255 40 40
27.9721 -7.5374 3.7574 255 40 40
27.9733 -7.5971 3.7574 255 40 40
27.9746 -7.6569 3.7574 255 40 40
27.9758 -7.7166 3.7574 255 40 40
27.9758 -7.7166 3.7574 255 40 40
27.9931 -7.7162 3.7574 255 40 40
28.0104 -7.7159 3.7574 255 40 40
28.0277 -7.7155 3.7574 255 40 40
28.0450 -7.7152 3.7574 255 40 40
28.0623 -7.7148 3.7574 255 40 40
28.0796 -7.7144 3.7574 255 40 40
28.0969 -7.7141 3.7574 255 40 40
28.1142 -7.7137 3.7574 255 40 40
28.1315 -7.7133 3.7574 255 40 40
28.1488 -7.7130 3.7574 255 40 40
28.1661 -7.7126 3.7574 255 40 40
28.1833 -7.7123 3.7574 255 40 40
28.2006 -7.7119 3.7574 255 40 40
28.2179 -7.7115 3.7574 255 40 40
28.2352 -7.7112 3.7574 255 40 40
28.2525 -7.7108 3.7574 255 40 40
28.2698 -7.7105 3.7574 255 40 40
28.2871 -7.7101 3.7574 255 40 40
28.3044 -7.7097 3.7574 255 40 40
28.3217 -7.7094 3.7574 255 40 40
28.3390 -7.7090 3.7574 255 40 40
28.3563 -7.7086 3.7574 255 40 40
28.3736 -7.7083 3.7574 255 40 40
28.3909 -7.7079 3.7574 255 40 40
28.4082 -7.7076 3.7574 255 40 40
28.4255 -7.7072 3.7574 255 40 40
28.4428 -7.7068 3.7574 255 40 40
28.4601 -7.7065 3.7574 255 40 40
28.4774 -7.7061 3.7574 255 40 40
28.4947 -7.7058 3.7574 255 40 40
28.5120 -7.7054 3.7574 255 40 40
28.5293 -7.7050 3.7574 255 40 40
28.5466 -7.7047 3.7574 255 40 40
28.5639 -7.7043 3.7574 255 40 40
28.5812 -7.7040 3.7574 255 40 40
28.5984 -7.7036 3.7574 255 40 40
28.6157 -7.7032 3.7574 255 40 40
28.6330 -7.7029 3.7574 255 40 40
28.6503 -7.7025 3.7574 255 40 40
28.6676 -7.7021 3.7574 255 40 40
28.6849 -7.7018 3.7574 255 40 40
28.7022 -7.7014 3.7574 255 40 40
28.7195 -7.7011 3.7574 255 40 40
28.7368 -7.7007 3.7574 255 40 40
28.7541 -7.7003 3.7574 255 40 40
28.7714 -7.7000 3.7574 255 40 40
28.7887 -7.6996 3.7574 255 40 40
28.8060 -7.6993 3.7574 255 40 40
28.8233 -7.6989 3.7574 255 40 40
28.8406 -7.6985 3.7574 255 40 40
28.8579 -7.6982 3.7574 255 40 40
28.8752 -7.6978 3.7574 255 40 40
28.8925 -7.6974 3.7574 255 40 40
28.9098 -7.6971 3.7574 255 40 40
28.9271 -7.6967 3.7574 255 40 40
28.9444 -7.6964 3.7574 255 40 40
28.9617 -7.6960 3.7574 255 40 40
28.9790 -7.6956 3.7574 255 40 40
28.9962 -7.6953 3.7574 255 40 40
29.0135 -7.6949 3.7574 255 40 40
29.0308 -7.6946 3.7574 255 40 40
29.0481 -7.6942 3.7574 255 40 40
29.0654 -7.6938 3.7574 255 40 40
29.0827 -7.6935 3.7574 255 40 40
29.1000 -7.6931 3.7574 255 40 40
29.1173 -7.6928 3.7574 255 40 40
29.1346 -7.6924 3.7574 255 40 40
29.1519 -7.6920 3.7574 255 40 40
29.1692 -7.6917 3.7574 255 40 40
29.1865 -7.6913 3.7574 255 40 40
29.2038 -7.6909 3.7574 255 40 40
29.2211 -7.6906 3.7574 255 40 40
29.2384 -7.6902 3.7574 255 40 40
29.2557 -7.6899 3.7574 255 40 40
29.2730 -7.6895 3.7574 255 40 40
29.2903 -7.6891 3.7574 255 40 40
29.3076 -7.6888 3.7574 255 40 40
29.3249 -7.6884 3.7574 255 40 40
29.3422 -7.6881 3.7574 255 40 40
29.3595 -7.6877 3.7574 255 40 40
29.3768 -7.6873 3.7574 255 40 40
29.3941 -7.6870 3.7574 255 40 40
29.4113 -7.6866 3.7574 255 40 40
29.4286 -7.6862 3.7574 255 40 40
29.4459 -7.6859 3.7574 255 40 40
29.4632 -7.6855 3.7574 255 40 40
29.4805 -7.6852 3.7574 255 40 40
29.4978 -7.6848 3.7574 255 40 40
29.5151 -7.6844 3.7574 255 40 40
29.5324 -7.6841 3.7574 255 40 40
29.5497 -7.6837 3.7574 255 40 40
29.5670 -7.6834 3.7574 255 40 40
29.5843 -7.6830 3.7574 255 40 40
29.6016 -7.6826 3.7574 255 40 40
29.6189 -7.6823 3.7574 255 40 40
29.6362 -7.6819 3.7574 255 40 40
29.6535 -7.6816 3.7574 255 40 40
29.6708 -7.6812 3.7574 255 40 40
29.6881 -7.6808 3.7574 255 40 40
29.7054 -7.6805 3.7574 255 40 40
29.7227 -7.6801 3.7574 255 40 40
29.7400 -7.6797 3.7574 255 40 40
29.7573 -7.6794 3.7574 255 40 40
29.7746 -7.6790 3.7574 255 40 40
29.7919 -7.6787 3.7574 255 40 40
29.8092 -7.6783 3.7574 255 40 40
29.8264 -7.6779 3.7574 255 40 40
29.8437 -7.6776 3.7574 255 40 40
29.8610 -7.6772 3.7574 255 40 40
29.8783 -7.6769 3.7574 255 40 40
29.8956 -7.6765 3.7574 255 40 40
29.9129 -7.6761 3.7574 255 40 40
29.9302 -7.6758 3.7574 255 40 40
29.9475 -7.6754 3.7574 255 40 40
29.9648 -7.6750 3.7574 255 40 40
29.9821 -7.6747 3.7574 255 40 40
29.9994 -7.6743 3.7574 255 40 40
30.0167 -7.6740 3.7574 255 40 40
30.0340 -7.6736 3.7574 255 40 40
30.0513 -7.6732 3.7574 255 40 40
30.0686 -7.6729 3.7574 255 40 40
30.0859 -7.6725 3.7574 255 40 40
30.1032 -7.6722 3.7574 255 40 40
30.1205 -7.6718 3.7574 255 40 40
30.1378 -7.6714 3.7574 255 40 40
30.1551 -7.6711 3.7574 255 40 40
30.1724 -7.6707 3.7574 255 40 40
30.1897 -7.6704 3.7574 255 40 40
30.2070 -7.6700 3.7574 255 40 40
30.2242 -7.6696 3.7574 255 40 40
30.2415 -7.6693 3.7574 255 40 40
30.2588 -7.6689 3.7574 255 40 40
30.2761 -7.6685 3.7574 255 40 40
30.2934 -7.6682 3.7574 255 40 40
30.3107 -7.6678 3.7574 255 40 40
30.3280 -7.6675 3.7574 255 40 40
30.3453 -7.6671 3.7574 255 40 40
30.3626 -7.6667 3.7574 255 40 40
30.3799 -7.6664 3.7574 255 40 40
30.3972 -7.6660 3.7574 255 40 40
30.4145 -7.6657 3.7574 255 40 40
30.4318 -7.6653 3.7574 255 40 40
30.4491 -7.6649 3.7574 255 40 40
30.4664 -7.6646 3.7574 255 40 40
30.4837 -7.6642 3.7574 255 40 40
30.5010 -7.6638 3.7574 255 40 40
30.5183 -7.6635 3.7574 255 40 40
30.5356 -7.6631 3.7574 255 40 40
30.5529 -7.6628 3.7574 255 40 40
30.5702 -7.6624 3.7574 255 40 40
30.5875 -7.6620 3.7574 255 40 40
30.6048 -7.6617 3.7574 255 40 40
30.6221 -7.6613 3.7574 255 40 40
30.6393 -7.6610 3.7574 255 40 40
30.6566 -7.6606 3.7574 255 40 40
30.6739 -7.6602 3.7574 255 40 40
30.6912 -7.6599 3.7574 255 40 40
30.7085 -7.6595 3.7574 255 40 40
30.7258 -7.6592 3.7574 255 40 40
30.7431 -7.6588 3.7574 255 40 40
30.7604 -7.6584 3.7574 255 40 40
30.7777 -7.6581 3.7574 255 40 40
30.7950 -7.6577 3.7574 255 40 40
30.8123 -7.6573 3.7574 255 40 40
30.8296 -7.6570 3.7574 255 40 40
30.8296 -7.6570 3.7574 255 40 40
30.8284 -7.5972 3.7574 255 40 40
30.8271 -7.5375 3.7574 255 40 40
30.8259 -7.4778 3.7574 255 40 40
30.8246 -7.4180 3.7574 255 40 40
30.8234 -7.3583 3.7574 255 40 40
30.8221 -7.2985 3.7574 255 40 40
30.8209 -7.2388 3.7574 255 40 40
30.8196 -7.1790 3.7574 255 40 40
30.8184 -7.1193 3.7574 255 40 40
30.8171 -7.0595 3.7574 255 40 40
30.8159 -6.9998 3.7574 255 40 40
30.8146 -6.9400 3.7574 255 40 40
30.8134 -6.8803 3.7574 255 40 40
30.8121 -6.8206 3.7574 255 40 40
30.8109 -6.7608 3.7574 255 40 40
30.8096 -6.7011 3.7574 255 40 40
30.8084 -6.6413 3.7574 255 40 40
30.8071 -6.5816 3.7574 255 40 40
30.8059 -6.5218 3.7574 255 40 40
30.8046 -6.4621 3.7574 255 40 40
30.8034 -6.4023 3.7574 255 40 40
30.8021 -6.3426 3.7574 255 40 40
30.8009 -6.2828 3.7574 255 40 40
30.7996 -6.2231 3.7574 255 40 40
30.7984 -6.1634 3.7574 255 40 40
30.7972 -6.1036 3.7574 255 40 40
30.7959 -6.0439 3.7574 255 40 40
30.7947 -5.9841 3.7574 255 40 40
30.7934 -5.9244 3.7574 255 40 40
30.7922 -5.8646 3.7574 255 40 40
30.7909 -5.8049 3.7574 255 40 40
30.7897 -5.7451 3.7574 255 40 40
30.7884 -5.6854 3.7574 255 40 40
30.7872 -5.6257 3.7574 255 40 40
30.7859 -5.5659 3.7574 255 40 40
30.7847 -5.5062 3.7574 255 40 40
30.7834 -5.4464 3.7574 255 40 40
30.7822 -5.3867 3.7574 255 40 40
30.7809 -5.3269 3.7574 255 40 40
30.7797 -5.2672 3.7574 255 40 40
30.7784 -5.2074 3.7574 255 40 40
30.7772 -5.1477 3.7574 255 40 40
30.7759 -5.0879 3.7574 255 40 40
30.7747 -5.0282 3.7574 255 40 40
30.7734 -4.9685 3.7574 255 40 40
30.7722 -4.9087 3.7574 255 40 40
30.7709 -4.8490 3.7574 255 40 40
30.7697 -4.7892 3.7574 255 40 40
30.7684 -4.7295 3.7574 255 40 40
30.7672 -4.6697 3.7574 255 40 40
30.7660 -4.6100 3.7574 255 40 40
30.7647 -4.5502 3.7574 255 40 40
30.7635 -4.4905 3.7574 255 40 40
30.7622 -4.4308 3.7574 255 40 40
30.7610 -4.3710 3.7574 255 40 40
30.7597 -4.3113 3.7574 255 40 40
30.7585 -4.2515 3.7574 255 40 40
30.7572 -4.1918 3.7574 255 40 40
30.7560 -4.1320 3.7574 255 40 40
30.7547 -4.0723 3.7574 255 40 40
30.7535 -4.0125 3.7574 255 40 40
30.7522 -3.9528 3.7574 255 40 40
30.7510 -3.8930 3.7574 255 40 40
30.7497 -3.8333 3.7574 255 40 40
30.7485 -3.7736 3.7574 255 40 40
30.7472 -3.7138 3.7574 255 40 40
30.7460 -3.6541 3.7574 255 40 40
30.7447 -3.5943 3.7574 255 40 40
30.7435 -3.5346 3.7574 255 40 40
30.7422 -3.4748 3.7574 255 40 40
30.7410 -3.4151 3.7574 255 40 40
30.7397 -3.3553 3.7574 255 40 40
30.7385 -3.2956 3.7574 255 40 40
30.7372 -3.2359 3.7574 255 40 40
30.7360 -3.1761 3.7574 255 40 40
30.7348 -3.1164 3.7574 255 40 40
30.7335 -3.0566 3.7574 255 40 40
30.7323 -2.9969 3.7574 255 40 40
30.7310 -2.9371 3.7574 255 40 40
30.7298 -2.8774 3.7574 255 40 40
30.7285 -2.8176 3.7574 255 40 40
30.7273 -2.7579 3.7574 255 40 40
30.7260 -2.6981 3.7574 255 40 40
30.7248 -2.6384 3.7574 255 40 40
30.7235 -2.5787 3.7574 255 40 40
30.7223 -2.5189 3.7574 255 40 40
30.7210 -2.4592 3.7574 255 40 40
30.7198 -2.3994 3.7574 255 40 40
30.7185 -2.3397 3.7574 255 40 40
30.7173 -2.2799 3.7574 255 40 40
30.7160 -2.2202 3.7574 255 40 40
30.7148 -2.1604 3.7574 255 40 40
30.7135 -2.1007 3.7574 255 40 40
30.7123 -2.0410 3.7574 255 40 40
30.7110 -1.9812 3.7574 255 40 40
30.7098 -1.9215 3.7574 255 40 40
30.7085 -1.8617 3.7574 255 40 40
30.7073 -1.8020 3.7574 255 40 40
30.7061 -1.7422 3.7574 255 40 40
30.7048 -1.6825 3.7574 255 40 40
30.7036 -1.6227 3.7574 255 40 40
30.7023 -1.5630 3.7574 255 40 40
30.7011 -1.5032 3.7574 255 40 40
30.6998 -1.4435 3.7574 255 40 40
30.6986 -1.3838 3.7574 255 40 40
30.6973 -1.3240 3.7574 255 40 40
30.6961 -1.2643 3.7574 255 40 40
30.6948 -1.2045 3.7574 255 40 40
30.6936 -1.1448 3.7574 255 40 40
30.6923 -1.0850 3.7574 255 40 40
30.6911 -1.0253 3.7574 255 40 40
30.6898 -0.9655 3.7574 255 40 40
30.6886 -0.9058 3.7574 255 40 40
30.6873 -0.8461 3.7574 255 40 40
30.6861 -0.7863 3.7574 255 40 40
30.6848 -0.7266 3.7574 255 40 40
30.6836 -0.6668 3.7574 255 40 40
30.6823 -0.6071 3.7574 255 40 40
30.6811 -0.5473 3.7574 255 40 40
30.6798 -0.4876 3.7574 255 40 40
30.6786 -0.4278 3.7574 255 40 40
30.6773 -0.3681 3.7574 255 40 40
30.6761 -0.3083 3.7574 255 40 40
30.6749 -0.2486 3.7574 255 40 40
30.6736 -0.1889 3.7574 255 40 40
30.6724 -0.1291 3.7574 255 40 40
30.6711 -0.0694 3.7574 255 40 40
30.6699 -0.0096 3.7574 255 40 40
30.6686 0.0501 3.7574 255 40 40
30.6674 0.1099 3.7574 255 40 40
30.6661 0.1696 3.7574 255 40 40
30.6649 0.2294 3.7574 255 40 40
30.6636 0.2891 3.7574 255 40 40
30.6624 0.3488 3.7574 255 40 40
30.6611 0.4086 3.7574 255 40 40
30.6599 0.4683 3.7574 255 40 40
30.6586 0.5281 3.7574 255 40 40
30.6574 0.5878 3.7574 255 40 40
30.6561 0.6476 3.7574 255 40 40
30.6549 0.7073 3.7574 255 40 40
30.6536 0.7671 3.7574 255 40 40
30.6524 0.8268 3.7574 255 40 40
30.6511 0.8866 3.7574 255 40 40
30.6499 0.9463 3.7574 255 40 40
30.6486 1.0060 3.7574 255 40 40
30.6474 1.0658 3.7574 255 40 40
30.6461 1.1255 3.7574 255 40 40
30.6449 1.1853 3.7574 255 40 40
30.6437 1.2450 3.7574 255 40 40
30.6424 1.3048 3.7574 255 40 40
30.6412 1.3645 3.7574 255 40 40
30.6399 1.4243 3.7574 255 40 40
30.6387 1.4840 3.7574 255 40 40
30.6374 1.5437 3.7574 255 40 40
30.6362 1.6035 3.7574 255 40 40
30.6349 1.6632 3.7574 255 40 40
30.6337 1.7230 3.7574 255 40 40
30.6324 1.7827 3.7574 255 40 40
30.6312 1.8425 3.7574 255 40 40
30.6299 1.9022 3.7574 255 40 40
30.6287 1.9620 3.7574 255 40 40
30.6274 2.0217 3.7574 255 40 40
30.6262 2.0815 3.7574 255 40 40
30.6249 2.1412 3.7574 255 40 40
30.6237 2.2009 3.7574 255 40 40
30.6237 2.2009 3.7574 255 40 40
30.6064 2.2006 3.7574 255 40 40
30.5891 2.2002 3.7574 255 40 40
30.5718 2.1999 3.7574 255 40 40
30.5545 2.1995 3.7574 255 40 40
30.5372 2.1991 3.7574 255 40 40
30.5199 2.1988 3.7574 255 40 40
30.5026 2.1984 3.7574 255 40 40
30.4853 2.1981 3.7574 255 40 40
30.4680 2.1977 3.7574 255 40 40
30.4507 2.1973 3.7574 255 40 40
30.4334 2.1970 3.7574 255 40 40
30.4161 2.1966 3.7574 255 40 40
30.3988 2.1962 3.7574 255 40 40
30.3815 2.1959 3.7574 255 40 40
30.3642 2.1955 3.7574 255 40 40
30.3470 2.1952 3.7574 255 40 40
30.3297 2.1948 3.7574 255 40 40
30.3124 2.1944 3.7574 255 40 40
30.2951 2.1941 3.7574 255 40 40
30.2778 2.1937 3.7574 255 40 40
30.2605 2.1934 3.7574 255 40 40
30.2432 2.1930 3.7574 255 40 40
30.2259 2.1926 3.7574 255 40 40
30.2086 2.1923 3.7574 255 40 40
30.1913 2.1919 3.7574 255 40 40
30.1740 2.1915 3.7574 255 40 40
30.1567 2.1912 3.7574 255 40 40
30.1394 2.1908 3.7574 255 40 40
30.1221 2.1905 3.7574 255 40 40
30.1048 2.1901 3.7574 255 40 40
30.0875 2.1897 3.7574 255 40 40
30.0702 2.1894 3.7574 255 40 40
30.0529 2.1890 3.7574 255 40 40
30.0356 2.1887 3.7574 255 40 40
30.0183 2.1883 3.7574 255 40 40
30.0010 2.1879 3.7574 255 40 40
29.9837 2.1876 3.7574 255 40 40
29.9664 2.1872 3.7574 255 40 40
29.9492 2.1869 3.7574 255 40 40
29.9319 2.1865 3.7574 255 40 40
29.9146 2.1861 3.7574 255 40 40
29.8973 2.1858 3.7574 255 40 40
29.8800 2.1854 3.7574 255 40 40
29.8627 2.1850 3.7574 255 40 40
29.8454 2.1847 3.7574 255 40 40
29.8281 2.1843 3.7574 255 40 40
29.8108 2.1840 3.7574 255 40 40
29.7935 2.1836 3.7574 255 40 40
29.7762 2.1832 3.7574 255 40 40
29.7589 2.1829 3.7574 255 40 40
29.7416 2.1825 3.7574 255 40 40
29.7243 2.1822 3.7574 255 40 40
29.7070 2.1818 3.7574 255 40 40
29.6897 2.1814 3.7574 255 40 40
29.6724 2.1811 3.7574 255 40 40
29.6551 2.1807 3.7574 255 40 40
29.6378 2.1804 3.7574 255 40 40
29.6205 2.1800 3.7574 255 40 40
29.6032 2.1796 3.7574 255 40 40
29.5859 2.1793 3.7574 255 40 40
29.5686 2.1789 3.7574 255 40 40
29.5513 2.1785 3.7574 255 40 40
29.5341 2.1782 3.7574 255 40 40
29.5168 2.1778 3.7574 255 40 40
29.4995 2.1775 3.7574 255 40 40
29.4822 2.1771 3.7574 255 40 40
29.4649 2.1767 3.7574 255 40 40
29.4476 2.1764 3.7574 255 40 40
29.4303 2.1760 3.7574 255 40 40
29.4130 2.1757 3.7574 255 40 40
29.3957 2.1753 3.7574 255 40 40
29.3784 2.1749 3.7574 255 40 40
29.3611 2.1746 3.7574 255 40 40
29.3438 2.1742 3.7574 255 40 40
29.3265 2.1738 3.7574 255 40 40
29.3092 2.1735 3.7574 255 40 40
29.2919 2.1731 3.7574 255 40 40
29.2746 2.1728 3.7574 255 40 40
29.2573 2.1724 3.7574 255 40 40
29.2400 2.1720 3.7574 255 40 40
29.2227 2.1717 3.7574 255 40 40
29.2054 2.1713 3.7574 255 40 40
29.1881 2.1710 3.7574 255 40 40
29.1708 2.1706 3.7574 255 40 40
29.1535 2.1702 3.7574 255 40 40
29.1362 2.1699 3.7574 255 40 40
29.1190 2.1695 3.7574 255 40 40
29.1017 2.1692 3.7574 255 40 40
29.0844 2.1688 3.7574 255 40 40
29.0671 2.1684 3.7574 255 40 40
29.0498 2.1681 3.7574 255 40 40
29.0325 2.1677 3.7574 255 40 40
29.0152 2.1673 3.7574 255 40 40
28.9979 2.1670 3.7574 255 40 40
28.9806 2.1666 3.7574 255 40 40
28.9633 2.1663 3.7574 255 40 40
28.9460 2.1659 3.7574 255 40 40
28.9287 2.1655 3.7574 255 40 40
28.9114 2.1652 3.7574 255 40 40
28.8941 2.1648 3.7574 255 40 40
28.8768 2.1645 3.7574 255 40 40
28.8595 2.1641 3.7574 255 40 40
28.8422 2.1637 3.7574 255 40 40
28.8249 2.1634 3.7574 255 40 40
28.8076 2.1630 3.7574 255 40 40
28.7903 2.1626 3.7574 255 40 40
28.7730 2.1623 3.7574 255 40 40
28.7557 2.1619 3.7574 255 40 40
28.7384 2.1616 3.7574 255 40 40
28.7212 2.1612 3.7574 255 40 40
28.7039 2.1608 3.7574 255 40 40
28.6866 2.1605 3.7574 255 40 40
28.6693 2.1601 3.7574 255 40 40
28.6520 2.1598 3.7574 255 40 40
28.6347 2.1594 3.7574 255 40 40
28.6174 2.1590 3.7574 255 40 40
28.6001 2.1587 3.7574 255 40 40
28.5828 2.1583 3.7574 255 40 40
28.5655 2.1580 3.7574 255 40 40
28.5482 2.1576 3.7574 255 40 40
28.5309 2.1572 3.7574 255 40 40
28.5136 2.1569 3.7574 255 40 40
28.4963 2.1565 3.7574 255 40 40
28.4790 2.1561 3.7574 255 40 40
28.4617 2.1558 3.7574 255 40 40
28.4444 2.1554 3.7574 255 40 40
28.4271 2.1551 3.7574 255 40 40
28.4098 2.1547 3.7574 255 40 40
28.3925 2.1543 3.7574 255 40 40
28.3752 2.1540 3.7574 255 40 40
28.3579 2.1536 3.7574 255 40 40
28.3406 2.1533 3.7574 255 40 40
28.3233 2.1529 3.7574 255 40 40
28.3061 2.1525 3.7574 255 40 40
28.2888 2.1522 3.7574 255 40 40
28.2715 2.1518 3.7574 255 40 40
28.2542 2.1514 3.7574 255 40 40
28.2369 2.1511 3.7574 255 40 40
28.2196 2.1507 3.7574 255 40 40
28.2023 2.1504 3.7574 255 40 40
28.1850 2.1500 3.7574 255 40 40
28.1677 2.1496 3.7574 255 40 40
28.1504 2.1493 3.7574 255 40 40
28.1331 2.1489 3.7574 255 40 40
28.1158 2.1486 3.7574 255 40 40
28.0985 2.1482 3.7574 255 40 40
28.0812 2.1478 3.7574 255 40 40
28.0639 2.1475 3.7574 255 40 40
28.0466 2.1471 3.7574 255 40 40
28.0293 2.1468 3.7574 255 40 40
28.0120 2.1464 3.7574 255 40 40
27.9947 2.1460 3.7574 255 40 40
27.9774 2.1457 3.7574 255 40 40
27.9601 2.1453 3.7574 255 40 40
27.9428 2.1449 3.7574 255 40 40
27.9255 2.1446 3.7574 255 40 40
27.9083 2.1442 3.7574 255 40 40
27.8910 2.1439 3.7574 255 40 40
27.8737 2.1435 3.7574 255 40 40
27.8564 2.1431 3.7574 255 40 40
27.8391 2.1428 3.7574 255 40 40
27.8218 2.1424 3.7574 255 40 40
27.8045 2.1421 3.7574 255 40 40
27.7872 2.1417 3.7574 255 40 40
27.7699 2.1413 3.7574 255 40 40
27.7699 2.1413 0.7490 255 40 40
27.7699 2.1413 0.7672 255 40 40
27.7699 2.1413 0.7855 255 40 40
27.7699 2.1413 0.8037 255 40 40
27.7699 2.1413 0.8219 255 40 40
27.7699 2.1413 0.8402 255 40 40
27.7699 2.1413 0.8584 255 40 40
27.7699 2.1413 0.8766 255 40 40
27.7699 2.1413 0.8949 255 40 40
27.7699 2.1413 0.9131 255 40 40
27.7699 2.1413 0.9313 255 40 40
27.7699 2.1413 0.9496 255 40 40
27.7699 2.1413 0.9678 255 40 40
27.7699 2.1413 0.9860 255 40 40
27.7699 2.1413 1.0043 255 40 40
27.7699 2.1413 1.0225 255 40 40
27.7699 2.1413 1.0407 255 40 40
27.7699 2.1413 1.0590 255 40 40
27.7699 2.1413 1.0772 255 40 40
27.7699 2.1413 1.0954 255 40 40
27.7699 2.1413 1.1137 255 40 40
27.7699 2.1413 1.1319 255 40 40
27.7699 2.1413 1.1501 255 40 40
27.7699 2.1413 1.1684 255 40 40
27.7699 2.1413 1.1866 255 40 40
27.7699 2.1413 1.2048 255 40 40
27.7699 2.1413 1.2231 255 40 40
27.7699 2.1413 1.2413 255 40 40
27.7699 2.1413 1.2595 255 40 40
27.7699 2.1413 1.2778 255 40 40
27.7699 2.1413 1.2960 255 40 40
27.7699 2.1413 1.3142 255 40 40
27.7699 2.1413 1.3325 255 40 40
27.7699 2.1413 1.3507 255 40 40
27.7699 2.1413 1.3689 255 40 40
27.7699 2.1413 1.3872 255 40 40
27.7699 2.1413 1.4054 255 40 40
27.7699 2.1413 1.4236 255 40 40
27.7699 2.1413 1.4419 255 40 40
27.7699 2.1413 1.4601 255 40 40
27.7699 2.1413 1.4783 255 40 40
27.7699 2.1413 1.4966 255 40 40
27.7699 2.1413 1.5148 255 40 40
27.7699 2.1413 1.5330 255 40 40
27.7699 2.1413 1.5513 255 40 40
27.7699 2.1413 1.5695 255 40 40
27.7699 2.1413 1.5877 255 40 40
27.7699 2.1413 1.6060 255 40 40
27.7699 2.1413 1.6242 255 40 40
27.7699 2.1413 1.6424 255 40 40
27.7699 2.1413 1.6607 255 40 40
27.7699 2.1413 1.6789 255 40 40
27.7699 2.1413 1.6971 255 40 40
27.7699 2.1413 1.7153 255 40 40
27.7699 2.1413 1.7336 255 40 40
27.7699 2.1413 1.7518 255 40 40
27.7699 2.1413 1.7700 255 40 40
27.7699 2.1413 1.7883 255 40 40
27.7699 2.1413 1.8065 255 40 40
27.7699 2.1413 1.8247 255 40 40
27.7699 2.1413 1.8430 255 40 40
27.7699 2.1413 1.8612 255 40 40
27.7699 2.1413 1.8794 255 40 40
27.7699 2.1413 1.8977 255 40 40
27.7699 2.1413 1.9159 255 40 40
27.7699 2.1413 1.9341 255 40 40
27.7699 2.1413 1.9524 255 40 40
27.7699 2.1413 1.9706 255 40 40
27.7699 2.1413 1.9888 255 40 40
27.7699 2.1413 2.0071 255 40 40
27.7699 2.1413 2.0253 255 40 40
27.7699 2.1413 2.0435 255 40 40
27.7699 2.1413 2.0618 255 40 40
27.7699 2.1413 2.0800 255 40 40
27.7699 2.1413 2.0982 255 40 40
27.7699 2.1413 2.1165 255 40 40
27.7699 2.1413 2.1347 255 40 40
27.7699 2.1413 2.1529 255 40 40
27.7699 2.1413 2.1712 255 40 40
27.7699 2.1413 2.1894 255 40 40
27.7699 2.1413 2.2076 255 40 40
27.7699 2.1413 2.2259 255 40 40
27.7699 2.1413 2.2441 255 40 40
27.7699 2.1413 2.2623 255 40 40
27.7699 2.1413 2.2806 255 40 40
27.7699 2.1413 2.2988 255 40 40
27.7699 2.1413 2.3170 255 40 40
27.7699 2.1413 2.3353 255 40 40
27.7699 2.1413 2.3535 255 40 40
27.7699 2.1413 2.3717 255 40 40
27.7699 2.1413 2.3900 255 40 40
27.7699 2.1413 2.4082 255 40 40
27.7699 2.1413 2.4264 255 40 40
27.7699 2.1413 2.4447 255 40 40
27.7699 2.1413 2.4629 255 40 40
27.7699 2.1413 2.4811 255 40 40
27.7699 2.1413 2.4994 255 40 40
27.7699 2.1413 2.5176 255 40 40
27.7699 2.1413 2.5358 255 40 40
27.7699 2.1413 2.5541 255 40 40
27.7699 2.1413 2.5723 255 40 40
27.7699 2.1413 2.5905 255 40 40
27.7699 2.1413 2.6088 255 40 40
27.7699 2.1413 2.6270 255 40 40
27.7699 2.1413 2.6452 255 40 40
27.7699 2.1413 2.6635 255 40 40
27.7699 2.1413 2.6817 255 40 40
27.7699 2.1413 2.6999 255 40 40
27.7699 2.1413 2.7182 255 40 40
27.7699 2.1413 2.7364 255 40 40
27.7699 2.1413 2.7546 255 40 40
27.7699 2.1413 2.7729 255 40 40
27.7699 2.1413 2.7911 255 40 40
27.7699 2.1413 2.8093 255 40 40
27.7699 2.1413 2.8276 255 40 40
27.7699 2.1413 2.8458 255 40 40
27.7699 2.1413 2.8640 255 40 40
27.7699 2.1413 2.8823 255 40 40
27.7699 2.1413 2.9005 255 40 40
27.7699 2.1413 2.9187 255 40 40
27.7699 2.1413 2.9370 255 40 40
27.7699 2.1413 2.9552 255 40 40
27.7699 2.1413 2.9734 255 40 40
27.7699 2.1413 2.9917 255 40 40
27.7699 2.1413 3.0099 255 40 40
27.7699 2.1413 3.0281 255 40 40
27.7699 2.1413 3.0464 255 40 40
27.7699 2.1413 3.0646 255 40 40
27.7699 2.1413 3.0828 255 40 40
27.7699 2.1413 3.1011 255 40 40
27.7699 2.1413 3.1193 255 40 40
27.7699 2.1413 3.1375 255 40 40
27.7699 2.1413 3.1558 255 40 40
27.7699 2.1413 3.1740 255 40 40
27.7699 2.1413 3.1922 255 40 40
27.7699 2.1413 3.2105 255 40 40
27.7699 2.1413 3.2287 255 40 40
27.7699 2.1413 3.2469 255 40 40
27.7699 2.1413 3.2652 255 40 40
27.7699 2.1413 3.2834 255 40 40
27.7699 2.1413 3.3016 255 40 40
27.7699 2.1413 3.3199 255 40 40
27.7699 2.1413 3.3381 255 40 40
27.7699 2.1413 3.3563 255 40 40
27.7699 2.1413 3.3746 255 40 40
27.7699 2.1413 3.3928 255 40 40
27.7699 2.1413 3.4110 255 40 40
27.7699 2.1413 3.4292 255 40 40
27.7699 2.1413 3.4475 255 40 40
27.7699 2.1413 3.4657 255 40 40
27.7699 2.1413 3.4839 255 40 40
27.7699 2.1413 3.5022 255 40 40
27.7699 2.1413 3.5204 255 40 40
27.7699 2.1413 3.5386 255 40 40
27.7699 2.1413 3.5569 255 40 40
27.7699 2.1413 3.5751 255 40 40
27.7699 2.1413 3.5933 255 40 40
27.7699 2.1413 3.6116 255 40 40
27.7699 2.1413 3.6298 255 40 40
27.7699 2.1413 3.6480 255 40 40
27.7699 2.1413 3.6663 255 40 40
27.7699 2.1413 3.6845 255 40 40
27.7699 2.1413 3.7027 255 40 40
27.7699 2.1413 3.7210 255 40 40
27.7699 2.1413 3.7392 255 40 40
27.7699 2.1413 3.7574 255 40 40
27.9758 -7.7166 0.7490 255 40 40
27.9758 -7.7166 0.7672 255 40 40
27.9758 -7.7166 0.7855 255 40 40
27.9758 -7.7166 0.8037 255 40 40
27.9758 -7.7166 0.8219 255 40 40
27.9758 -7.7166 0.8402 255 40 40
27.9758 -7.7166 0.8584 255 40 40
27.9758 -7.7166 0.8766 255 40 40
27.9758 -7.7166 0.8949 255 40 40
27.9758 -7.7166 0.9131 255 40 40
27.9758 -7.7166 0.9313 255 40 40
27.9758 -7.7166 0.9496 255 40 40
27.9758 -7.7166 0.9678 255 40 40
27.9758 -7.7166 0.9860 255 40 40
27.9758 -7.7166 1.0043 255 40 40
27.9758 -7.7166 1.0225 255 40 40
27.9758 -7.7166 1.0407 255 40 40
27.9758 -7.7166 1.0590 255 40 40
27.9758 -7.7166 1.0772 255 40 40
27.9758 -7.7166 1.0954 255 40 40
27.9758 -7.7166 1.1137 255 40 40
27.9758 -7.7166 1.1319 255 40 40
27.9758 -7.7166 1.1501 255 40 40
27.9758 -7.7166 1.1684 255 40 40
27.9758 -7.7166 1.1866 255 40 40
27.9758 -7.7166 1.2048 255 40 40
27.9758 -7.7166 1.2231 255 40 40
27.9758 -7.7166 1.2413 255 40 40
27.9758 -7.7166 1.2595 255 40 40
27.9758 -7.7166 1.2778 255 40 40
27.9758 -7.7166 1.2960 255 40 40
27.9758 -7.7166 1.3142 255 40 40
27.9758 -7.7166 1.3325 255 40 40
27.9758 -7.7166 1.3507 255 40 40
27.9758 -7.7166 1.3689 255 40 40
27.9758 -7.7166 1.3872 255 40 40
27.9758 -7.7166 1.4054 255 40 40
27.9758 -7.7166 1.4236 255 40 40
27.9758 -7.7166 1.4419 255 40 40
27.9758 -7.7166 1.4601 255 40 40
27.9758 -7.7166 1.4783 255 40 40
27.9758 -7.7166 1.4966 255 40 40
27.9758 -7.7166 1.5148 255 40 40
27.9758 -7.7166 1.5330 255 40 40
27.9758 -7.7166 1.5513 255 40 40
27.9758 -7.7166 1.5695 255 40 40
27.9758 -7.7166 1.5877 255 40 40
27.9758 -7.7166 1.6060 255 40 40
27.9758 -7.7166 1.6242 255 40 40
27.9758 -7.7166 1.6424 255 40 40
27.9758 -7.7166 1.6607 255 40 40
27.9758 -7.7166 1.6789 255 40 40
27.9758 -7.7166 1.6971 255 40 40
27.9758 -7.7166 1.7153 255 40 40
27.9758 -7.7166 1.7336 255 40 40
27.9758 -7.7166 1.7518 255 40 40
27.9758 -7.7166 1.7700 255 40 40
27.9758 -7.7166 1.7883 255 40 40
27.9758 -7.7166 1.8065 255 40 40
27.9758 -7.7166 1.8247 255 40 40
27.9758 -7.7166 1.8430 255 40 40
27.9758 -7.7166 1.8612 255 40 40
27.9758 -7.7166 1.8794 255 40 40
27.9758 -7.7166 1.8977 255 40 40
27.9758 -7.7166 1.9159 255 40 40
27.9758 -7.7166 1.9341 255 40 40
27.9758 -7.7166 1.9524 255 40 40
27.9758 -7.7166 1.9706 255 40 40
27.9758 -7.7166 1.9888 255 40 40
27.9758 -7.7166 2.0071 255 40 40
27.9758 -7.7166 2.0253 255 40 40
27.9758 -7.7166 2.0435 255 40 40
27.9758 -7.7166 2.0618 255 40 40
27.9758 -7.7166 2.0800 255 40 40
27.9758 -7.7166 2.0982 255 40 40
27.9758 -7.7166 2.1165 255 40 40
27.9758 -7.7166 2.1347 255 40 40
27.9758 -7.7166 2.1529 255 40 40
27.9758 -7.7166 2.1712 255 40 40
27.9758 -7.7166 2.1894 255 40 40
27.9758 -7.7166 2.2076 255 40 40
27.9758 -7.7166 2.2259 255 40 40
27.9758 -7.7166 2.2441 255 40 40
27.9758 -7.7166 2.2623 255 40 40
27.9758 -7.7166 2.2806 255 40 40
27.9758 -7.7166 2.2988 255 40 40
27.9758 -7.7166 2.3170 255 40 40
27.9758 -7.7166 2.3353 255 40 40
27.9758 -7.7166 2.3535 255 40 40
27.9758 -7.7166 2.3717 255 40 40
27.9758 -7.7166 2.3900 255 40 40
27.9758 -7.7166 2.4082 255 40 40
27.9758 -7.7166 2.4264 255 40 40
27.9758 -7.7166 2.4447 255 40 40
27.9758 -7.7166 2.4629 255 40 40
27.9758 -7.7166 2.4811 255 40 40
27.9758 -7.7166 2.4994 255 40 40
27.9758 -7.7166 2.5176 255 40 40
27.9758 -7.7166 2.5358 255 40 40
27.9758 -7.7166 2.5541 255 40 40
27.9758 -7.7166 2.5723 255 40 40
27.9758 -7.7166 2.5905 255 40 40
27.9758 -7.7166 2.6088 255 40 40
27.9758 -7.7166 2.6270 255 40 40
27.9758 -7.7166 2.6452 255 40 40
27.9758 -7.7166 2.6635 255 40 40
27.9758 -7.7166 2.6817 255 40 40
27.9758 -7.7166 2.6999 255 40 40
27.9758 -7.7166 2.7182 255 40 40
27.9758 -7.7166 2.7364 255 40 40
27.9758 -7.7166 2.7546 255 40 40
27.9758 -7.7166 2.7729 255 40 40
27.9758 -7.7166 2.7911 255 40 40
27.9758 -7.7166 2.8093 255 40 40
27.9758 -7.7166 2.8276 255 40 40
27.9758 -7.7166 2.8458 255 40 40
27.9758 -7.7166 2.8640 255 40 40
27.9758 -7.7166 2.8823 255 40 40
27.9758 -7.7166 2.9005 255 40 40
27.9758 -7.7166 2.9187 255 40 40
27.9758 -7.7166 2.9370 255 40 40
27.9758 -7.7166 2.9552 255 40 40
27.9758 -7.7166 2.9734 255 40 40
27.9758 -7.7166 2.9917 255 40 40
27.9758 -7.7166 3.0099 255 40 40
27.9758 -7.7166 3.0281 255 40 40
27.9758 -7.7166 3.0464 255 40 40
27.9758 -7.7166 3.0646 255 40 40
27.9758 -7.7166 3.0828 255 40 40
27.9758 -7.7166 3.1011 255 40 40
27.9758 -7.7166 3.1193 255 40 40
27.9758 -7.7166 3.1375 255 40 40
27.9758 -7.7166 3.1558 255 40 40
27.9758 -7.7166 3.1740 255 40 40
27.9758 -7.7166 3.1922 255 40 40
27.9758 -7.7166 3.2105 255 40 40
27.9758 -7.7166 3.2287 255 40 40
27.9758 -7.7166 3.2469 255 40 40
27.9758 -7.7166 3.2652 255 40 40
27.9758 -7.7166 3.2834 255 40 40
27.9758 -7.7166 3.3016 255 40 40
27.9758 -7.7166 3.3199 255 40 40
27.9758 -7.7166 3.3381 255 40 40
27.9758 -7.7166 3.3563 255 40 40
27.9758 -7.7166 3.3746 255 40 40
27.9758 -7.7166 3.3928 255 40 40
27.9758 -7.7166 3.4110 255 40 40
27.9758 -7.7166 3.4292 255 40 40
27.9758 -7.7166 3.4475 255 40 40
27.9758 -7.7166 3.4657 255 40 40
27.9758 -7.7166 3.4839 255 40 40
27.9758 -7.7166 3.5022 255 40 40
27.9758 -7.7166 3.5204 255 40 40
27.9758 -7.7166 3.5386 255 40 40
27.9758 -7.7166 3.5569 255 40 40
27.9758 -7.7166 3.5751 255 40 40
27.9758 -7.7166 3.5933 255 40 40
27.9758 -7.7166 3.6116 255 40 40
27.9758 -7.7166 3.6298 255 40 40
27.9758 -7.7166 3.6480 255 40 40
27.9758 -7.7166 3.6663 255 40 40
27.9758 -7.7166 3.6845 255 40 40
27.9758 -7.7166 3.7027 255 40 40
27.9758 -7.7166 3.7210 255 40 40
27.9758 -7.7166 3.7392 255 40 40
27.9758 -7.7166 3.7574 255 40 40
30.8296 -7.6570 0.7490 255 40 40
30.8296 -7.6570 0.7672 255 40 40
30.8296 -7.6570 0.7855 255 40 40
30.8296 -7.6570 0.8037 255 40 40
30.8296 -7.6570 0.8219 255 40 40
30.8296 -7.6570 0.8402 255 40 40
30.8296 -7.6570 0.8584 255 40 40
30.8296 -7.6570 0.8766 255 40 40
30.8296 -7.6570 0.8949 255 40 40
30.8296 -7.6570 0.9131 255 40 40
30.8296 -7.6570 0.9313 255 40 40
30.8296 -7.6570 0.9496 255 40 40
30.8296 -7.6570 0.9678 255 40 40
30.8296 -7.6570 0.9860 255 40 40
30.8296 -7.6570 1.0043 255 40 40
30.8296 -7.6570 1.0225 255 40 40
30.8296 -7.6570 1.0407 255 40 40
30.8296 -7.6570 1.0590 255 40 40
30.8296 -7.6570 1.0772 255 40 40
30.8296 -7.6570 1.0954 255 40 40
30.8296 -7.6570 1.1137 255 40 40
30.8296 -7.6570 1.1319 255 40 40
30.8296 -7.6570 1.1501 255 40 40
30.8296 -7.6570 1.1684 255 40 40
30.8296 -7.6570 1.1866 255 40 40
30.8296 -7.6570 1.2048 255 40 40
30.8296 -7.6570 1.2231 255 40 40
30.8296 -7.6570 1.2413 255 40 40
30.8296 -7.6570 1.2595 255 40 40
30.8296 -7.6570 1.2778 255 40 40
30.8296 -7.6570 1.2960 255 40 40
30.8296 -7.6570 1.3142 255 40 40
30.8296 -7.6570 1.3325 255 40 40
30.8296 -7.6570 1.3507 255 40 40
30.8296 -7.6570 1.3689 255 40 40
30.8296 -7.6570 1.3872 255 40 40
30.8296 -7.6570 1.4054 255 40 40
30.8296 -7.6570 1.4236 255 40 40
30.8296 -7.6570 1.4419 255 40 40
30.8296 -7.6570 1.4601 255 40 40
30.8296 -7.6570 1.4783 255 40 40
30.8296 -7.6570 1.4966 255 40 40
30.8296 -7.6570 1.5148 255 40 40
30.8296 -7.6570 1.5330 255 40 40
30.8296 -7.6570 1.5513 255 40 40
30.8296 -7.6570 1.5695 255 40 40
30.8296 -7.6570 1.5877 255 40 40
30.8296 -7.6570 1.6060 255 40 40
30.8296 -7.6570 1.6242 255 40 40
30.8296 -7.6570 1.6424 255 40 40
30.8296 -7.6570 1.6607 255 40 40
30.8296 -7.6570 1.6789 255 40 40
30.8296 -7.6570 1.6971 255 40 40
30.8296 -7.6570 1.7153 255 40 40
30.8296 -7.6570 1.7336 255 40 40
30.8296 -7.6570 1.7518 255 40 40
30.8296 -7.6570 1.7700 255 40 40
30.8296 -7.6570 1.7883 255 40 40
30.8296 -7.6570 1.8065 255 40 40
30.8296 -7.6570 1.8247 255 40 40
30.8296 -7.6570 1.8430 255 40 40
30.8296 -7.6570 1.8612 255 40 40
30.8296 -7.6570 1.8794 255 40 40
30.8296 -7.6570 1.8977 255 40 40
30.8296 -7.6570 1.9159 255 40 40
30.8296 -7.6570 1.9341 255 40 40
30.8296 -7.6570 1.9524 255 40 40
30.8296 -7.6570 1.9706 255 40 40
30.8296 -7.6570 1.9888 255 40 40
30.8296 -7.6570 2.0071 255 40 40
30.8296 -7.6570 2.0253 255 40 40
30.8296 -7.6570 2.0435 255 40 40
30.8296 -7.6570 2.0618 255 40 40
30.8296 -7.6570 2.0800 255 40 40
30.8296 -7.6570 2.0982 255 40 40
30.8296 -7.6570 2.1165 255 40 40
30.8296 -7.6570 2.1347 255 40 40
30.8296 -7.6570 2.1529 255 40 40
30.8296 -7.6570 2.1712 255 40 40
30.8296 -7.6570 2.1894 255 40 40
30.8296 -7.6570 2.2076 255 40 40
30.8296 -7.6570 2.2259 255 40 40
