ply
format ascii 1.0
element vertex 1410
property float x
property float y
property float z
property uchar red
property uchar green
property uchar blue
end_header
7.3592 -2.1068 -0.0984 255 200 100
19.8308 3.7598 0.0707 255 200 100
16.7577 9.0354 2.4057 255 200 100
36.5876 -4.5205 5.2226 255 200 100
7.8863 -3.5811 -0.1816 255 200 100
7.9005 -3.5355 -0.1805 255 200 100
20.8299 -3.6790 -0.0376 255 200 100
34.7547 -4.6921 5.8580 255 200 100
16.8602 0.1589 -0.0198 255 200 100
10.0046 4.0172 0.0140 255 200 100
46.0910 11.0673 1.9574 255 200 100
29.4877 -13.5938 1.9670 255 200 100
28.6217 -13.1678 4.8286 255 200 100
30.0417 -12.0387 0.4687 255 200 100
19.7438 4.0906 0.0763 255 200 100
11.5392 3.8868 0.0217 255 200 100
30.2914 3.1656 1.1814 255 200 100
10.0147 -2.7510 -0.1697 255 200 100
14.6616 -5.8834 -0.2153 255 200 100
29.6238 2.0504 3.2048 255 200 100
20.8163 -5.3798 -0.0579 255 200 100
8.0099 -0.7839 -0.0344 255 200 100
11.4241 -4.2838 -0.2684 255 200 100
15.0321 -2.9460 -0.1764 255 200 100
29.8133 -9.4665 5.4601 255 200 100
8.2444 2.4715 0.0248 255 200 100
17.4267 -8.4715 -0.2485 255 200 100
9.5711 0.7124 -0.0071 255 200 100
23.2876 7.2164 0.2765 255 200 100
15.8806 9.1480 4.4638 255 200 100
16.8459 9.0661 2.8355 255 200 100
20.6398 -1.5346 -0.0020 255 200 100
29.8830 -9.3037 4.7448 255 200 100
8.9103 -2.9820 -0.1677 255 200 100
28.3901 0.0493 3.1349 255 200 100
11.7571 2.9183 0.0193 255 200 100
36.6952 14.6525 4.7393 255 200 100
10.8016 -0.0052 -0.0248 255 200 100
13.2956 4.8442 0.0266 255 200 100
11.3387 -3.8979 -0.2327 255 200 100
24.3151 0.4917 0.2161 255 200 100
24.4524 -6.3729 2.4447 255 200 100
29.2067 -11.4972 4.0717 255 200 100
7.3310 -2.4373 -0.1172 255 200 100
29.6064 -10.1421 4.7563 255 200 100
17.5698 -7.3547 -0.2280 255 200 100
24.6017 7.1700 0.7644 255 200 100
9.9961 -3.4590 -0.2049 255 200 100
7.3964 -1.1429 -0.0518 255 200 100
15.3072 8.8905 2.3796 255 200 100
24.9893 -2.4458 0.1597 255 200 100
29.4304 -10.6358 5.4790 255 200 100
7.7915 0.8687 0.0230 255 200 100
8.7144 -4.1774 -0.2197 255 200 100
31.0380 -5.7773 4.7348 255 200 100
19.6534 9.2310 3.9267 255 200 100
29.0899 1.0730 0.5440 255 200 100
25.1131 -3.1672 0.1475 255 200 100
29.1934 1.3622 3.1790 255 200 100
8.8358 -1.0635 -0.0587 255 200 100
16.2026 4.2778 0.0249 255 200 100
28.9889 -15.2030 1.2517 255 200 100
10.3336 2.7790 0.0124 255 200 100
13.1424 5.3720 0.0293 255 200 100
29.5887 -10.1371 5.4694 255 200 100
8.7934 3.9420 0.0162 255 200 100
17.3418 9.0891 0.2213 255 200 100
7.3035 -0.2864 -0.0017 255 200 100
17.5635 -7.4673 -0.2307 255 200 100
10.9883 -4.8122 -0.2229 255 200 100
8.3912 1.9465 0.0184 255 200 100
12.0663 1.0380 0.0041 255 200 100
8.4290 1.7684 0.0174 255 200 100
29.4709 -13.5838 2.7018 255 200 100
9.9926 -3.5183 -0.2078 255 200 100
8.9767 3.4583 0.0126 255 200 100
24.9837 -5.4741 1.2915 255 200 100
13.8513 1.9663 0.0140 255 200 100
10.9616 -1.0694 -0.0650 255 200 100
13.7058 3.0313 0.0175 255 200 100
16.6410 1.3566 0.0044 255 200 100
30.5687 -10.2844 1.9137 255 200 100
23.5348 6.2937 0.2637 255 200 100
17.6178 9.1117 0.1969 255 200 100
26.2413 -3.6240 0.6638 255 200 100
18.7503 9.1427 1.5041 255 200 100
36.6071 12.5521 2.8714 255 200 100
9.5443 1.0185 -0.0058 255 200 100
26.8787 -2.3580 2.4609 255 200 100
29.1812 -14.6845 0.5017 255 200 100
13.8382 7.9764 0.1906 255 200 100
8.5410 4.5139 0.0208 255 200 100
18.6836 6.6831 0.1443 255 200 100
8.7265 -0.4474 -0.0208 255 200 100
8.0377 -0.9137 -0.0451 255 200 100
26.5621 -12.9544 -0.0433 255 200 100
9.9889 -3.1537 -0.1857 255 200 100
24.3317 0.3567 0.2147 255 200 100
29.2929 -6.1259 3.9053 255 200 100
15.4347 -5.4267 -0.3014 255 200 100
6.6020 -2.7172 -0.1096 255 200 100
8.0612 -1.0031 -0.0539 255 200 100
24.5238 -6.2433 1.8766 255 200 100
26.0416 -3.7499 1.2638 255 200 100
11.2320 -2.3409 -0.1472 255 200 100
20.7279 -8.3311 -0.1018 255 200 100
7.8729 3.5555 0.0301 255 200 100
7.7447 1.4010 0.0175 255 200 100
27.2448 -5.1905 1.8668 255 200 100
29.5741 -10.3147 4.0484 255 200 100
28.5575 -13.3239 5.5540 255 200 100
6.7761 -0.4354 -0.0040 255 200 100
36.0302 14.6165 4.6965 255 200 100
15.0491 -3.1237 -0.1826 255 200 100
20.8178 -4.7635 -0.0495 255 200 100
7.7811 1.1989 0.0159 255 200 100
18.1178 9.1788 1.9777 255 200 100
18.1705 7.7844 0.1729 255 200 100
29.5756 -13.4437 0.4866 255 200 100
7.2408 0.3519 0.0164 255 200 100
9.0812 3.1678 0.0091 255 200 100
19.3575 5.1476 0.1021 255 200 100
29.7716 -12.7179 1.9511 255 200 100
9.1125 3.0687 0.0084 255 200 100
12.0266 1.2322 0.0087 255 200 100
30.0813 -8.6352 6.1754 255 200 100
28.8462 -12.4920 4.8088 255 200 100
14.5054 6.7994 0.8722 255 200 100
7.3676 2.8409 0.0221 255 200 100
8.9309 -2.2087 -0.1261 255 200 100
28.5170 -13.5081 4.8401 255 200 100
7.8464 0.4646 0.0163 255 200 100
38.3406 10.5120 3.7643 255 200 100
8.8609 -3.3401 -0.1822 255 200 100
23.8541 5.1052 0.2457 255 200 100
24.9559 -2.1621 0.1633 255 200 100
24.2552 1.0349 0.2211 255 200 100
13.4787 4.0874 0.0242 255 200 100
24.6364 7.3303 0.7632 255 200 100
30.5948 3.6916 2.5729 255 200 100
25.4506 10.1648 0.7322 255 200 100
28.3680 -14.0406 4.1386 255 200 100
8.8535 3.7998 0.0144 255 200 100
20.7961 -6.1295 -0.0676 255 200 100
8.9084 -3.0877 -0.1745 255 200 100
9.7835 4.6234 0.0168 255 200 100
31.1186 -5.4410 5.4556 255 200 100
31.7230 -4.9939 5.5140 255 200 100
9.7646 -0.7314 -0.0510 255 200 100
30.3413 -7.9735 6.1780 255 200 100
20.1818 1.6547 0.0473 255 200 100
16.3418 9.0203 2.8157 255 200 100
13.2017 -3.9467 -0.2589 255 200 100
12.3550 -0.4789 -0.0419 255 200 100
13.9645 1.2859 0.0047 255 200 100
29.7653 -9.6377 4.7483 255 200 100
8.7900 -3.8671 -0.2087 255 200 100
7.6669 1.7642 0.0207 255 200 100
25.9387 -8.5189 0.0496 255 200 100
26.1878 -3.4831 2.4509 255 200 100
12.9174 6.0450 0.0335 255 200 100
19.9953 2.7652 0.0611 255 200 100
17.5591 9.2710 4.6700 255 200 100
20.8207 -4.5214 -0.0466 255 200 100
30.1392 -11.8761 2.6700 255 200 100
49.1415 -4.6936 6.3941 255 200 100
13.0975 -3.3715 -0.2218 255 200 100
30.7411 -9.7683 1.1722 255 200 100
7.3782 -1.9046 -0.0891 255 200 100
15.2436 -3.6964 -0.2230 255 200 100
15.9273 9.0944 3.6306 255 200 100
28.1615 -14.5182 5.6001 255 200 100
8.9003 -3.0315 -0.1688 255 200 100
6.7520 -2.0238 -0.0835 255 200 100
16.6212 1.9100 0.0039 255 200 100
29.6272 -10.1481 4.0457 255 200 100
28.7425 -12.8304 4.8192 255 200 100
14.8157 -2.2312 -0.1328 255 200 100
11.7537 6.5367 0.1616 255 200 100
37.4271 15.0207 2.9545 255 200 100
17.7109 9.1606 3.3211 255 200 100
9.7691 -4.5563 -0.2357 255 200 100
8.6815 -0.0800 -0.0071 255 200 100
10.5384 1.6486 0.0083 255 200 100
7.3958 -1.0258 -0.0469 255 200 100
25.6806 -6.8549 0.0826 255 200 100
30.4616 -10.6344 1.1833 255 200 100
7.4146 2.7250 0.0201 255 200 100
6.6631 -2.4604 -0.0991 255 200 100
30.4103 -11.0043 3.3878 255 200 100
25.7421 -5.4915 0.0893 255 200 100
31.7965 -4.9967 4.0555 255 200 100
25.2329 9.4181 0.7405 255 200 100
7.2055 0.9892 0.0115 255 200 100
10.2253 3.1688 0.0162 255 200 100
17.6816 -5.2786 -0.1844 255 200 100
15.1983 -3.5086 -0.2122 255 200 100
11.3251 -3.0136 -0.1893 255 200 100
49.0441 -3.5639 6.3743 255 200 100
26.1572 -9.4249 0.0255 255 200 100
16.8455 9.0380 0.6973 255 200 100
20.0493 2.3152 0.0579 255 200 100
25.6270 -7.1551 2.4826 255 200 100
14.9529 8.8853 2.7621 255 200 100
31.8480 6.2944 0.4296 255 200 100
20.6363 -1.6528 -0.0024 255 200 100
8.9613 3.5091 0.0124 255 200 100
20.4971 -0.2668 0.0168 255 200 100
8.5482 1.2354 0.0082 255 200 100
16.4625 3.1019 0.0117 255 200 100
9.9846 -3.5777 -0.2099 255 200 100
30.9027 -9.2446 1.1659 255 200 100
10.2796 2.9438 0.0157 255 200 100
29.9356 2.5815 3.2246 255 200 100
24.8385 -1.7297 0.1733 255 200 100
15.1221 8.9282 1.5943 255 200 100
17.6547 -3.3944 -0.1440 255 200 100
20.7275 -8.1966 -0.0990 255 200 100
9.9638 -4.3268 -0.2565 255 200 100
9.4638 1.5221 -0.0001 255 200 100
15.2036 8.8801 1.1995 255 200 100
8.5597 0.9168 0.0133 255 200 100
20.4968 -10.9199 -0.1406 255 200 100
7.2918 -0.1736 0.0027 255 200 100
8.3563 2.0775 0.0203 255 200 100
19.1319 9.2035 4.8516 255 200 100
7.1592 1.2097 0.0160 255 200 100
29.0672 -11.8181 4.7911 255 200 100
30.6343 3.7289 1.1764 255 200 100
10.6286 0.9669 0.0029 255 200 100
30.2414 -8.1343 5.4475 255 200 100
8.6547 0.1492 -0.0006 255 200 100
14.1687 -7.0020 -0.1983 255 200 100
28.0703 -14.8818 4.8904 255 200 100
8.0469 3.0794 0.0292 255 200 100
20.3381 0.6419 0.0333 255 200 100
28.0516 -14.8628 6.3527 255 200 100
24.7569 -6.3070 3.0243 255 200 100
25.5618 -6.2080 0.0961 255 200 100
7.6119 2.0049 0.0212 255 200 100
40.3104 -7.3006 1.8783 255 200 100
7.0941 1.5417 0.0178 255 200 100
40.0611 -7.4806 1.8794 255 200 100
30.0744 -12.0453 3.4069 255 200 100
24.0315 4.0248 0.2359 255 200 100
11.4639 4.2131 0.0205 255 200 100
17.5102 9.4059 3.7718 255 200 100
8.5831 0.7354 0.0111 255 200 100
13.9450 1.7466 0.0035 255 200 100
10.0156 -2.8092 -0.1728 255 200 100
8.9427 3.5569 0.0130 255 200 100
11.5692 3.7557 0.0219 255 200 100
7.4929 2.4447 0.0222 255 200 100
24.0525 3.8908 0.2347 255 200 100
8.0990 -2.1169 -0.1156 255 200 100
7.2121 -3.0518 -0.1441 255 200 100
11.6180 3.4931 0.0234 255 200 100
30.2227 -11.3244 1.9285 255 200 100
8.8461 -1.3044 -0.0682 255 200 100
30.4879 -10.8389 2.6532 255 200 100
26.9122 -2.3495 1.2435 255 200 100
16.9503 -0.1191 -0.0309 255 200 100
10.7553 0.2258 -0.0160 255 200 100
17.4802 -2.9582 -0.1172 255 200 100
27.8635 -0.8556 0.5958 255 200 100
12.1392 0.7162 -0.0055 255 200 100
13.9500 7.6339 0.1903 255 200 100
28.3249 -14.0027 6.3118 255 200 100
29.1053 -11.6378 6.2284 255 200 100
20.5980 -9.9466 -0.1258 255 200 100
27.6943 -4.7999 1.8644 255 200 100
16.6112 9.3475 4.5672 255 200 100
38.7042 15.5732 2.0441 255 200 100
26.5064 -13.1177 -0.0417 255 200 100
25.9359 -3.8941 2.4482 255 200 100
25.1590 -6.8642 2.4678 255 200 100
7.2241 -3.0124 -0.1432 255 200 100
17.6491 -4.0064 -0.1540 255 200 100
8.6789 4.1739 0.0213 255 200 100
8.9236 3.6045 0.0137 255 200 100
7.7219 4.0526 0.0180 255 200 100
8.1703 2.7393 0.0251 255 200 100
7.3471 -2.2718 -0.1079 255 200 100
17.6585 -4.9502 -0.1743 255 200 100
10.7698 5.9589 0.0385 255 200 100
9.9165 -1.7659 -0.1084 255 200 100
10.8660 -0.4711 -0.0394 255 200 100
28.6883 0.5337 3.1506 255 200 100
25.1698 -5.2322 3.0220 255 200 100
26.5165 -3.0574 0.6525 255 200 100
15.5549 6.7070 0.4229 255 200 100
10.5788 1.3654 0.0063 255 200 100
10.1618 3.3915 0.0177 255 200 100
17.1672 9.1089 3.2876 255 200 100
27.9504 -15.2279 4.9040 255 200 100
28.6121 -13.1551 5.5481 255 200 100
10.4932 1.8734 0.0114 255 200 100
8.0533 -1.0872 -0.0545 255 200 100
9.2043 2.7209 0.0080 255 200 100
7.7288 1.4406 0.0200 255 200 100
7.3972 -1.6227 -0.0764 255 200 100
7.7529 1.3610 0.0171 255 200 100
8.1006 -1.8899 -0.1026 255 200 100
37.2352 10.9302 1.9636 255 200 100
30.6360 -10.3094 2.6450 255 200 100
30.5165 -10.4619 1.1810 255 200 100
11.0948 -1.7518 -0.1044 255 200 100
26.0198 -3.7548 2.4490 255 200 100
49.0909 -4.1316 6.3836 255 200 100
30.5343 -10.6575 2.6502 255 200 100
16.1154 9.1881 4.0702 255 200 100
14.4899 -1.2112 -0.0734 255 200 100
8.8888 -3.1874 -0.1772 255 200 100
15.8975 8.9503 1.1679 255 200 100
20.8126 -4.8878 -0.0507 255 200 100
7.2686 -0.0229 0.0101 255 200 100
26.5078 -11.1128 -0.0170 255 200 100
7.3389 -0.5550 -0.0164 255 200 100
23.6098 6.0327 0.2595 255 200 100
8.9207 -2.7216 -0.1531 255 200 100
9.9638 -4.1963 -0.2471 255 200 100
13.5677 3.6316 0.0235 255 200 100
23.4025 6.8209 0.2705 255 200 100
23.1731 7.6125 0.2823 255 200 100
10.1567 -5.0792 2.1379 255 200 100
24.6520 -6.5749 1.8797 255 200 100
25.4930 -4.7045 3.0281 255 200 100
34.8531 -4.6969 5.0645 255 200 100
7.2991 -0.2488 -0.0001 255 200 100
30.5960 -7.1285 4.7312 255 200 100
29.8251 2.3992 3.2176 255 200 100
31.8259 6.4817 0.4310 255 200 100
10.1894 3.2795 0.0179 255 200 100
26.1983 -4.0703 0.6647 255 200 100
36.3269 11.5601 1.9751 255 200 100
39.0840 16.8139 1.0918 255 200 100
6.7575 -0.2953 0.0042 255 200 100
19.6661 9.2168 0.9956 255 200 100
13.2664 4.9989 0.0255 255 200 100
28.2957 -0.0801 1.2150 255 200 100
8.8433 -3.5555 -0.1949 255 200 100
11.4038 4.4747 0.0187 255 200 100
8.6399 4.2716 0.0213 255 200 100
7.9667 -0.4015 -0.0157 255 200 100
30.0819 -8.6325 5.4511 255 200 100
14.3275 -6.5904 -0.2005 255 200 100
15.2786 -3.8836 -0.2327 255 200 100
17.5804 -6.8963 -0.2155 255 200 100
15.8567 4.9448 0.0519 255 200 100
34.7507 12.0903 3.6590 255 200 100
16.1567 7.3111 0.3591 255 200 100
12.8479 -2.2724 -0.1502 255 200 100
26.0922 -7.4461 1.2723 255 200 100
16.8948 0.0695 -0.0240 255 200 100
11.6108 3.5597 0.0223 255 200 100
20.7675 -7.8127 -0.0950 255 200 100
29.3830 -10.8035 4.7674 255 200 100
16.7450 0.7173 -0.0062 255 200 100
14.3513 -0.7236 -0.0497 255 200 100
12.9893 -4.7575 -0.2591 255 200 100
7.7678 3.8661 0.0256 255 200 100
25.2748 9.5964 0.7390 255 200 100
9.6402 4.9478 0.0202 255 200 100
11.6643 3.2997 0.0225 255 200 100
8.0526 -1.2168 -0.0589 255 200 100
9.9379 4.2417 0.0131 255 200 100
7.8339 0.5045 0.0190 255 200 100
13.8802 1.8938 0.0109 255 200 100
30.7930 -9.5916 1.9048 255 200 100
29.6928 -9.7950 6.1871 255 200 100
7.3956 -1.0647 -0.0483 255 200 100
17.7041 -5.3927 -0.1896 255 200 100
17.6638 -4.2156 -0.1596 255 200 100
8.0983 -2.5363 -0.1436 255 200 100
11.9877 1.5570 0.0110 255 200 100
23.3326 7.0881 0.2740 255 200 100
17.5430 9.2824 4.2143 255 200 100
28.1974 -0.2695 3.1252 255 200 100
10.9951 -1.3109 -0.0757 255 200 100
18.1738 7.4245 0.1786 255 200 100
16.4743 3.0106 0.0113 255 200 100
28.2682 -14.1753 5.5854 255 200 100
6.6682 -2.4230 -0.0968 255 200 100
49.0679 -3.8518 6.3789 255 200 100
31.9827 3.5454 0.4170 255 200 100
7.8996 -0.0281 0.0048 255 200 100
8.1094 -2.2589 -0.1272 255 200 100
28.9439 -15.3986 0.5108 255 200 100
14.1227 0.5258 -0.0142 255 200 100
25.2395 -3.6223 0.1363 255 200 100
9.4719 -4.5941 -0.1812 255 200 100
9.1257 3.0208 0.0083 255 200 100
14.3902 -6.4316 -0.2019 255 200 100
24.1844 2.2571 0.2268 255 200 100
10.7724 0.1688 -0.0192 255 200 100
8.7330 4.0878 0.0173 255 200 100
20.7642 -7.4126 -0.0870 255 200 100
15.7422 5.5929 0.0511 255 200 100
8.9095 -1.9526 -0.1086 255 200 100
12.2290 0.3222 -0.0189 255 200 100
8.8305 -3.7170 -0.2050 255 200 100
16.6894 9.0354 1.5551 255 200 100
32.4292 -4.9288 5.5940 255 200 100
13.5438 3.7841 0.0231 255 200 100
14.3597 -6.5099 -0.2012 255 200 100
30.5209 -7.2948 5.4461 255 200 100
30.2714 -11.3480 0.4598 255 200 100
30.2041 -8.2961 4.7347 255 200 100
18.4465 7.0581 0.1600 255 200 100
14.7800 -5.6482 -0.2220 255 200 100
12.3416 -0.4118 -0.0392 255 200 100
28.9880 1.0240 3.1672 255 200 100
14.8384 -2.3152 -0.1374 255 200 100
7.9953 -3.1767 -0.1699 255 200 100
24.9769 8.6809 0.7506 255 200 100
17.5779 -7.0118 -0.2186 255 200 100
20.6012 -9.8060 -0.1228 255 200 100
17.6480 -4.7339 -0.1684 255 200 100
8.7862 -3.9239 -0.2128 255 200 100
10.9461 5.7464 0.0246 255 200 100
7.2502 0.3897 0.0133 255 200 100
10.4437 2.1572 0.0129 255 200 100
16.5078 9.3065 4.1174 255 200 100
25.6204 10.5708 0.7254 255 200 100
14.4562 6.6922 2.9952 255 200 100
30.8438 -9.4182 1.9027 255 200 100
11.3295 -3.1465 -0.1956 255 200 100
26.3767 -3.2015 1.2558 255 200 100
26.8544 -2.4872 0.6383 255 200 100
12.4515 -5.9278 -0.2356 255 200 100
15.4158 -4.6576 -0.2736 255 200 100
20.6213 -9.6700 -0.1214 255 200 100
30.1503 -11.6905 0.4645 255 200 100
14.4517 6.4973 2.9845 255 200 100
7.3973 -1.7859 -0.0865 255 200 100
29.3575 -14.1506 0.4949 255 200 100
29.2672 -11.1334 5.4895 255 200 100
30.6175 -7.1289 4.0185 255 200 100
8.8964 -1.8006 -0.0987 255 200 100
19.4540 9.2287 4.8928 255 200 100
8.4006 1.9023 0.0183 255 200 100
15.0375 -5.5630 -0.2532 255 200 100
26.4645 -3.0584 1.2537 255 200 100
38.5414 8.9386 3.7326 255 200 100
36.8562 13.3552 2.8973 255 200 100
25.6598 -5.1697 0.0973 255 200 100
13.0637 5.7663 0.0252 255 200 100
14.3080 6.7276 0.1800 255 200 100
15.8008 9.2371 4.0452 255 200 100
25.5799 -5.9058 0.0973 255 200 100
12.9530 -2.7324 -0.1791 255 200 100
11.9226 1.8140 0.0176 255 200 100
30.7906 -6.4544 5.4478 255 200 100
17.6567 -4.6351 -0.1673 255 200 100
6.7955 -1.6584 -0.0674 255 200 100
36.1325 11.4750 2.8351 255 200 100
18.5557 9.3343 3.8471 255 200 100
34.2726 10.6044 4.4138 255 200 100
12.2892 -0.0089 -0.0289 255 200 100
15.2976 -3.9810 -0.2379 255 200 100
6.7959 -0.6817 -0.0166 255 200 100
36.4265 11.8262 1.9795 255 200 100
11.0263 -4.7585 -0.2262 255 200 100
10.4239 2.3282 0.0114 255 200 100
24.9403 -5.6178 3.0186 255 200 100
30.6051 -10.2994 0.4471 255 200 100
46.2085 9.7446 0.8557 255 200 100
8.9928 3.4095 0.0124 255 200 100
30.1566 -8.4695 4.7367 255 200 100
24.7995 -5.8798 3.0174 255 200 100
8.1049 -2.4446 -0.1387 255 200 100
13.7651 2.3392 0.0211 255 200 100
30.4022 -10.8065 1.9209 255 200 100
29.8914 -12.3751 1.2076 255 200 100
39.4606 -4.2165 6.3967 255 200 100
7.6713 1.7231 0.0216 255 200 100
28.2114 -14.3409 6.3266 255 200 100
10.1353 3.5079 0.0169 255 200 100
20.8240 -4.1566 -0.0425 255 200 100
32.0762 1.9132 0.4088 255 200 100
9.5499 0.9155 -0.0053 255 200 100
23.7859 5.3683 0.2497 255 200 100
29.6892 -13.2763 3.4346 255 200 100
7.3691 -2.1517 -0.1045 255 200 100
16.5561 2.6488 0.0056 255 200 100
11.8849 2.0731 0.0190 255 200 100
25.2007 -5.2251 0.7077 255 200 100
7.8856 0.0535 0.0086 255 200 100
29.2241 1.3846 1.8621 255 200 100
14.6745 8.6910 3.1263 255 200 100
22.8037 9.2353 0.2975 255 200 100
7.2247 0.4996 0.0188 255 200 100
30.2113 -11.5194 0.4622 255 200 100
14.9692 -2.8478 -0.1656 255 200 100
27.4899 -1.4586 0.6116 255 200 100
23.2260 7.4868 0.2793 255 200 100
30.1075 -11.6678 1.9338 255 200 100
17.6159 -3.2830 -0.1377 255 200 100
11.8336 6.3257 0.1610 255 200 100
26.2313 -3.4958 3.0468 255 200 100
8.8258 -0.9698 -0.0539 255 200 100
28.4360 -13.6617 5.5653 255 200 100
8.0947 -1.8422 -0.0985 255 200 100
13.9312 1.5887 0.0069 255 200 100
10.6521 0.7959 0.0003 255 200 100
41.8287 9.2505 2.9109 255 200 100
14.8987 8.8415 0.4373 255 200 100
30.9497 -6.1178 4.0180 255 200 100
30.4594 -7.4594 5.4453 255 200 100
30.1358 -11.8745 3.4038 255 200 100
7.9312 -3.3968 -0.1745 255 200 100
8.0553 -1.3478 -0.0648 255 200 100
36.5272 -4.5162 6.0604 255 200 100
7.2944 -2.5968 -0.1214 255 200 100
23.9748 4.2944 0.2394 255 200 100
26.9988 -2.2260 3.0725 255 200 100
25.5858 -5.6066 0.0992 255 200 100
11.2511 -2.4084 -0.1530 255 200 100
6.6263 -2.6459 -0.1085 255 200 100
8.0747 -1.6586 -0.0839 255 200 100
10.0761 3.7301 0.0165 255 200 100
24.1792 1.9853 0.2271 255 200 100
29.7876 -12.7261 1.2125 255 200 100
20.6729 -8.9926 -0.1109 255 200 100
8.7409 -4.0753 -0.2162 255 200 100
7.8670 0.2594 0.0128 255 200 100
27.9150 -0.7114 1.2224 255 200 100
7.3375 -2.3970 -0.1156 255 200 100
8.6909 -0.1241 -0.0095 255 200 100
12.4619 -0.8896 -0.0630 255 200 100
38.6025 8.9272 4.6453 255 200 100
7.2496 0.1268 0.0155 255 200 100
11.4139 -4.2086 -0.2625 255 200 100
8.0843 -2.6747 -0.1503 255 200 100
28.9779 0.9065 0.5488 255 200 100
20.5386 -0.4981 0.0122 255 200 100
11.1504 5.2449 0.0209 255 200 100
28.1988 -0.2420 1.2169 255 200 100
12.5479 -1.3098 -0.0826 255 200 100
12.2479 0.1909 -0.0219 255 200 100
27.4033 -1.6073 0.6152 255 200 100
11.7348 2.9779 0.0211 255 200 100
14.7473 -5.7286 -0.2207 255 200 100
12.8084 -5.1739 -0.2507 255 200 100
6.6107 -2.6804 -0.1079 255 200 100
17.5470 -7.6923 -0.2360 255 200 100
8.0554 -1.0449 -0.0537 255 200 100
29.2594 -11.3238 4.0678 255 200 100
9.9848 -3.7621 -0.2217 255 200 100
12.1859 0.5200 -0.0123 255 200 100
16.7654 0.9025 -0.0088 255 200 100
30.4484 -10.8258 3.3840 255 200 100
29.8312 -12.5461 1.9482 255 200 100
23.3673 6.9565 0.2723 255 200 100
43.6465 10.4989 0.9210 255 200 100
15.6428 6.5271 0.7981 255 200 100
19.7063 4.1966 0.0789 255 200 100
25.2541 -5.1042 3.0236 255 200 100
10.0637 3.7873 0.0158 255 200 100
31.0406 -6.3281 6.2051 255 200 100
18.6276 9.1893 1.9756 255 200 100
11.4086 -4.1359 -0.2576 255 200 100
30.9634 -9.2690 2.6317 255 200 100
28.9849 -11.9726 5.5098 255 200 100
12.6463 -1.7390 -0.1060 255 200 100
29.7687 -13.1124 3.4318 255 200 100
8.7114 -0.3095 -0.0157 255 200 100
8.8120 -3.7662 -0.2050 255 200 100
8.5055 1.4127 0.0128 255 200 100
7.2723 -0.0602 0.0089 255 200 100
25.3794 -4.5238 0.1210 255 200 100
14.4495 6.6040 2.6353 255 200 100
13.0187 -2.9722 -0.1966 255 200 100
8.7488 -0.5880 -0.0280 255 200 100
20.8222 -3.9127 -0.0395 255 200 100
14.7642 -2.0559 -0.1228 255 200 100
30.7781 -9.7779 0.4404 255 200 100
14.0333 7.4768 0.1866 255 200 100
7.4102 -1.4641 -0.0711 255 200 100
15.3365 -4.1725 -0.2485 255 200 100
24.8478 -5.8809 0.7224 255 200 100
29.0930 1.1950 3.1732 255 200 100
12.9197 -2.5786 -0.1695 255 200 100
15.5321 8.9096 2.3834 255 200 100
30.9078 -9.4380 3.3652 255 200 100
14.5123 -1.2928 -0.0774 255 200 100
23.4905 6.4222 0.2662 255 200 100
25.0231 -2.7312 0.1560 255 200 100
14.7857 -2.1413 -0.1271 255 200 100
7.8270 0.5435 0.0202 255 200 100
11.5913 3.6244 0.0231 255 200 100
20.0885 2.0949 0.0549 255 200 100
8.8798 -1.7482 -0.0927 255 200 100
28.8811 -12.5089 4.0956 255 200 100
7.3312 -0.4776 -0.0127 255 200 100
26.0649 -7.4388 2.4967 255 200 100
13.5043 3.9346 0.0247 255 200 100
9.2238 2.6737 0.0063 255 200 100
12.5723 -5.6469 -0.2386 255 200 100
36.5244 12.0870 1.9838 255 200 100
18.8281 6.4980 0.1339 255 200 100
19.4684 9.1966 2.4541 255 200 100
7.4027 -1.5837 -0.0756 255 200 100
7.8795 0.1771 0.0100 255 200 100
8.7539 -4.0241 -0.2145 255 200 100
20.6395 -9.4019 -0.1169 255 200 100
13.1964 -4.4271 -0.2772 255 200 100
7.6568 1.8025 0.0212 255 200 100
17.7041 -5.6113 -0.1949 255 200 100
28.8197 -12.6741 4.0994 255 200 100
7.2350 0.2772 0.0188 255 200 100
17.3796 9.1234 2.8570 255 200 100
15.6616 8.7569 2.3793 255 200 100
7.2389 0.3145 0.0173 255 200 100
29.6092 -13.2489 1.9606 255 200 100
15.8540 5.1398 0.0483 255 200 100
19.8482 3.6494 0.0698 255 200 100
11.3268 -2.8832 -0.1843 255 200 100
30.2962 -11.1582 1.1902 255 200 100
10.1756 3.3355 0.0178 255 200 100
11.9111 6.2011 0.1566 255 200 100
8.8753 3.7533 0.0133 255 200 100
9.8437 4.4562 0.0168 255 200 100
18.4645 9.5496 3.8549 255 200 100
29.3381 -14.1269 2.7148 255 200 100
30.3774 -10.9942 0.4558 255 200 100
10.1493 3.4481 0.0173 255 200 100
17.4182 -8.5882 -0.2517 255 200 100
9.6041 0.4588 -0.0118 255 200 100
30.0817 -12.0485 2.6730 255 200 100
30.0677 -8.8099 4.0290 255 200 100
8.5705 4.4712 0.0188 255 200 100
15.1706 -3.4116 -0.2060 255 200 100
7.9215 -0.1525 -0.0014 255 200 100
10.8451 -0.3542 -0.0346 255 200 100
8.4646 1.5900 0.0161 255 200 100
27.7702 -1.0079 0.5998 255 200 100
17.5609 9.1147 2.4207 255 200 100
11.6446 3.3642 0.0236 255 200 100
12.4083 -0.6821 -0.0522 255 200 100
30.6676 -10.1291 0.4446 255 200 100
9.4379 1.6719 0.0011 255 200 100
11.3474 4.6696 0.0187 255 200 100
49.0658 -4.4225 7.5200 255 200 100
9.5914 0.5089 -0.0095 255 200 100
30.4524 -10.6325 1.9185 255 200 100
16.0745 8.9529 0.7490 255 200 100
29.2873 -14.3268 0.4977 255 200 100
8.2257 2.5622 0.0236 255 200 100
8.0586 -2.7605 -0.1506 255 200 100
6.7977 -0.6470 -0.0161 255 200 100
27.4508 -1.4886 3.0907 255 200 100
13.8098 2.1159 0.0179 255 200 100
7.8119 0.7076 0.0213 255 200 100
26.4824 -3.0776 3.0545 255 200 100
28.1514 -14.5087 6.3338 255 200 100
14.3431 -0.6451 -0.0480 255 200 100
11.3220 -3.5486 -0.2124 255 200 100
6.7407 -0.0869 0.0116 255 200 100
8.6296 4.3266 0.0190 255 200 100
43.2639 9.3189 2.9440 255 200 100
8.3206 2.2097 0.0219 255 200 100
28.9211 -15.3820 1.2550 255 200 100
9.4587 1.5727 -0.0004 255 200 100
6.8101 -1.4388 -0.0570 255 200 100
8.9059 -2.0011 -0.1100 255 200 100
28.5852 0.3678 3.1451 255 200 100
12.6035 -5.5811 -0.2399 255 200 100
30.8749 -6.2875 4.7327 255 200 100
8.6560 0.0560 -0.0008 255 200 100
15.6180 6.0355 0.0546 255 200 100
14.2306 -0.0958 -0.0297 255 200 100
12.0597 6.1126 0.1414 255 200 100
9.9389 -4.5098 -0.2652 255 200 100
20.7356 -8.0659 -0.0971 255 200 100
15.9905 8.9707 1.9837 255 200 100
30.4486 -7.6340 4.0201 255 200 100
10.9786 -1.2512 -0.0715 255 200 100
20.7534 -7.9358 -0.0961 255 200 100
8.8763 -1.6988 -0.0898 255 200 100
7.1891 0.7593 0.0233 255 200 100
18.5421 9.5538 4.8123 255 200 100
19.9582 2.9854 0.0635 255 200 100
8.2312 2.5163 0.0251 255 200 100
38.0942 17.8750 3.0543 255 200 100
17.0736 9.0636 0.2451 255 200 100
19.9206 3.3221 0.0652 255 200 100
24.2146 1.5778 0.2244 255 200 100
25.0549 -5.4945 1.8697 255 200 100
8.1021 -2.4892 -0.1411 255 200 100
7.3474 2.8771 0.0239 255 200 100
27.5346 -1.3399 3.0943 255 200 100
13.0696 -4.6245 -0.2658 255 200 100
24.1832 2.1213 0.2269 255 200 100
8.5275 1.1409 0.0156 255 200 100
27.0987 -2.0829 3.0765 255 200 100
9.6842 -0.2583 -0.0287 255 200 100
12.9572 -4.8233 -0.2571 255 200 100
8.8343 -3.6051 -0.1968 255 200 100
11.3427 -3.7598 -0.2264 255 200 100
6.7016 -2.2390 -0.0882 255 200 100
41.6586 10.7615 0.9697 255 200 100
34.0498 -4.7770 4.2083 255 200 100
8.5326 1.0493 0.0167 255 200 100
25.8540 -4.0285 2.4474 255 200 100
27.6046 -3.0418 1.8567 255 200 100
24.6753 -5.9914 1.8741 255 200 100
17.4433 9.1056 1.0973 255 200 100
30.5757 -7.1284 5.4463 255 200 100
11.1083 5.3739 0.0205 255 200 100
27.6314 -1.1668 1.2281 255 200 100
16.4443 3.1921 0.0127 255 200 100
17.5057 -3.0622 -0.1217 255 200 100
22.4963 10.4730 0.3091 255 200 100
14.4530 6.9006 2.6484 255 200 100
10.5923 1.2507 0.0057 255 200 100
24.7770 -1.4441 0.1786 255 200 100
18.4183 9.2056 1.9770 255 200 100
8.5740 0.8264 0.0117 255 200 100
9.4710 1.4704 -0.0002 255 200 100
28.9323 -12.3394 4.0911 255 200 100
19.7038 9.2353 4.4241 255 200 100
20.7808 -6.8920 -0.0791 255 200 100
29.3338 -14.1364 1.2342 255 200 100
10.7088 0.5139 -0.0082 255 200 100
26.2162 -3.4736 1.2596 255 200 100
34.2212 -0.9869 0.8217 255 40 40
34.1608 -0.9901 0.8217 255 40 40
34.1004 -0.9933 0.8217 255 40 40
34.0401 -0.9964 0.8217 255 40 40
33.9797 -0.9996 0.8217 255 40 40
33.9193 -1.0028 0.8217 255 40 40
33.8589 -1.0060 0.8217 255 40 40
33.7985 -1.0092 0.8217 255 40 40
33.7382 -1.0124 0.8217 255 40 40
33.6778 -1.0155 0.8217 255 40 40
33.6174 -1.0187 0.8217 255 40 40
33.5570 -1.0219 0.8217 255 40 40
33.4966 -1.0251 0.8217 255 40 40
33.4362 -1.0283 0.8217 255 40 40
33.3759 -1.0315 0.8217 255 40 40
33.3155 -1.0346 0.8217 255 40 40
33.2551 -1.0378 0.8217 255 40 40
33.1947 -1.0410 0.8217 255 40 40
33.1343 -1.0442 0.8217 255 40 40
33.0739 -1.0474 0.8217 255 40 40
33.0136 -1.0506 0.8217 255 40 40
32.9532 -1.0537 0.8217 255 40 40
32.8928 -1.0569 0.8217 255 40 40
32.8324 -1.0601 0.8217 255 40 40
32.7720 -1.0633 0.8217 255 40 40
32.7116 -1.0665 0.8217 255 40 40
32.6513 -1.0697 0.8217 255 40 40
32.5909 -1.0728 0.8217 255 40 40
32.5305 -1.0760 0.8217 255 40 40
32.4701 -1.0792 0.8217 255 40 40
32.4097 -1.0824 0.8217 255 40 40
32.3493 -1.0856 0.8217 255 40 40
32.2890 -1.0888 0.8217 255 40 40
32.2286 -1.0919 0.8217 255 40 40
32.1682 -1.0951 0.8217 255 40 40
32.1078 -1.0983 0.8217 255 40 40
32.0474 -1.1015 0.8217 255 40 40
31.9871 -1.1047 0.8217 255 40 40
31.9267 -1.1079 0.8217 255 40 40
31.8663 -1.1111 0.8217 255 40 40
31.8059 -1.1142 0.8217 255 40 40
31.7455 -1.1174 0.8217 255 40 40
31.6851 -1.1206 0.8217 255 40 40
31.6248 -1.1238 0.8217 255 40 40
31.5644 -1.1270 0.8217 255 40 40
31.5040 -1.1302 0.8217 255 40 40
31.4436 -1.1333 0.8217 255 40 40
31.3832 -1.1365 0.8217 255 40 40
31.3228 -1.1397 0.8217 255 40 40
31.2625 -1.1429 0.8217 255 40 40
31.2021 -1.1461 0.8217 255 40 40
31.1417 -1.1493 0.8217 255 40 40
31.0813 -1.1524 0.8217 255 40 40
31.0209 -1.1556 0.8217 255 40 40
30.9605 -1.1588 0.8217 255 40 40
30.9002 -1.1620 0.8217 255 40 40
30.8398 -1.1652 0.8217 255 40 40
30.7794 -1.1684 0.8217 255 40 40
30.7190 -1.1715 0.8217 255 40 40
30.6586 -1.1747 0.8217 255 40 40
30.5982 -1.1779 0.8217 255 40 40
30.5379 -1.1811 0.8217 255 40 40
30.4775 -1.1843 0.8217 255 40 40
30.4171 -1.1875 0.8217 255 40 40
30.3567 -1.1906 0.8217 255 40 40
30.2963 -1.1938 0.8217 255 40 40
30.2360 -1.1970 0.8217 255 40 40
30.1756 -1.2002 0.8217 255 40 40
30.1152 -1.2034 0.8217 255 40 40
30.0548 -1.2066 0.8217 255 40 40
29.9944 -1.2097 0.8217 255 40 40
29.9340 -1.2129 0.8217 255 40 40
29.8737 -1.2161 0.8217 255 40 40
29.8133 -1.2193 0.8217 255 40 40
29.7529 -1.2225 0.8217 255 40 40
29.6925 -1.2257 0.8217 255 40 40
29.6321 -1.2288 0.8217 255 40 40
29.5717 -1.2320 0.8217 255 40 40
29.5114 -1.2352 0.8217 255 40 40
29.4510 -1.2384 0.8217 255 40 40
29.3906 -1.2416 0.8217 255 40 40
29.3302 -1.2448 0.8217 255 40 40
29.2698 -1.2479 0.8217 255 40 40
29.2094 -1.2511 0.8217 255 40 40
29.1491 -1.2543 0.8217 255 40 40
29.0887 -1.2575 0.8217 255 40 40
29.0283 -1.2607 0.8217 255 40 40
28.9679 -1.2639 0.8217 255 40 40
28.9075 -1.2671 0.8217 255 40 40
28.8471 -1.2702 0.8217 255 40 40
28.7868 -1.2734 0.8217 255 40 40
28.7264 -1.2766 0.8217 255 40 40
28.6660 -1.2798 0.8217 255 40 40
28.6056 -1.2830 0.8217 255 40 40
28.5452 -1.2862 0.8217 255 40 40
28.4848 -1.2893 0.8217 255 40 40
28.4245 -1.2925 0.8217 255 40 40
28.3641 -1.2957 0.8217 255 40 40
28.3037 -1.2989 0.8217 255 40 40
28.2433 -1.3021 0.8217 255 40 40
28.1829 -1.3053 0.8217 255 40 40
28.1226 -1.3084 0.8217 255 40 40
28.0622 -1.3116 0.8217 255 40 40
28.0018 -1.3148 0.8217 255 40 40
27.9414 -1.3180 0.8217 255 40 40
27.8810 -1.3212 0.8217 255 40 40
27.8206 -1.3244 0.8217 255 40 40
27.7603 -1.3275 0.8217 255 40 40
27.6999 -1.3307 0.8217 255 40 40
27.6395 -1.3339 0.8217 255 40 40
27.5791 -1.3371 0.8217 255 40 40
27.5187 -1.3403 0.8217 255 40 40
27.4583 -1.3435 0.8217 255 40 40
27.3980 -1.3466 0.8217 255 40 40
27.3376 -1.3498 0.8217 255 40 40
27.2772 -1.3530 0.8217 255 40 40
27.2168 -1.3562 0.8217 255 40 40
27.1564 -1.3594 0.8217 255 40 40
27.0960 -1.3626 0.8217 255 40 40
27.0357 -1.3657 0.8217 255 40 40
26.9753 -1.3689 0.8217 255 40 40
26.9149 -1.3721 0.8217 255 40 40
26.8545 -1.3753 0.8217 255 40 40
26.7941 -1.3785 0.8217 255 40 40
26.7338 -1.3817 0.8217 255 40 40
26.6734 -1.3848 0.8217 255 40 40
26.6130 -1.3880 0.8217 255 40 40
26.5526 -1.3912 0.8217 255 40 40
26.4922 -1.3944 0.8217 255 40 40
26.4318 -1.3976 0.8217 255 40 40
26.3715 -1.4008 0.8217 255 40 40
26.3111 -1.4039 0.8217 255 40 40
26.2507 -1.4071 0.8217 255 40 40
26.1903 -1.4103 0.8217 255 40 40
26.1299 -1.4135 0.8217 255 40 40
26.0695 -1.4167 0.8217 255 40 40
26.0092 -1.4199 0.8217 255 40 40
25.9488 -1.4230 0.8217 255 40 40
25.8884 -1.4262 0.8217 255 40 40
25.8280 -1.4294 0.8217 255 40 40
25.7676 -1.4326 0.8217 255 40 40
25.7072 -1.4358 0.8217 255 40 40
25.6469 -1.4390 0.8217 255 40 40
25.5865 -1.4422 0.8217 255 40 40
25.5261 -1.4453 0.8217 255 40 40
25.4657 -1.4485 0.8217 255 40 40
25.4053 -1.4517 0.8217 255 40 40
25.3449 -1.4549 0.8217 255 40 40
25.2846 -1.4581 0.8217 255 40 40
25.2242 -1.4613 0.8217 255 40 40
25.1638 -1.4644 0.8217 255 40 40
25.1034 -1.4676 0.8217 255 40 40
25.0430 -1.4708 0.8217 255 40 40
24.9827 -1.4740 0.8217 255 40 40
24.9223 -1.4772 0.8217 255 40 40
24.8619 -1.4804 0.8217 255 40 40
24.8015 -1.4835 0.8217 255 40 40
24.7411 -1.4867 0.8217 255 40 40
24.6807 -1.4899 0.8217 255 40 40
24.6204 -1.4931 0.8217 255 40 40
24.5600 -1.4963 0.8217 255 40 40
24.4996 -1.4995 0.8217 255 40 40
24.4392 -1.5026 0.8217 255 40 40
24.3788 -1.5058 0.8217 255 40 40
24.3184 -1.5090 0.8217 255 40 40
24.2581 -1.5122 0.8217 255 40 40
24.2581 -1.5122 0.8217 255 40 40
24.2590 -1.5293 0.8217 255 40 40
24.2599 -1.5464 0.8217 255 40 40
24.2608 -1.5635 0.8217 255 40 40
24.2617 -1.5806 0.8217 255 40 40
24.2626 -1.5977 0.8217 255 40 40
24.2635 -1.6148 0.8217 255 40 40
24.2644 -1.6319 0.8217 255 40 40
24.2653 -1.6490 0.8217 255 40 40
24.2662 -1.6661 0.8217 255 40 40
24.2671 -1.6832 0.8217 255 40 40
24.2680 -1.7003 0.8217 255 40 40
24.2689 -1.7174 0.8217 255 40 40
24.2698 -1.7345 0.8217 255 40 40
24.2707 -1.7516 0.8217 255 40 40
24.2716 -1.7687 0.8217 255 40 40
24.2725 -1.7858 0.8217 255 40 40
24.2734 -1.8029 0.8217 255 40 40
24.2743 -1.8200 0.8217 255 40 40
24.2752 -1.8371 0.8217 255 40 40
24.2761 -1.8542 0.8217 255 40 40
24.2770 -1.8713 0.8217 255 40 40
24.2779 -1.8884 0.8217 255 40 40
24.2788 -1.9055 0.8217 255 40 40
24.2797 -1.9227 0.8217 255 40 40
24.2806 -1.9398 0.8217 255 40 40
24.2815 -1.9569 0.8217 255 40 40
24.2824 -1.9740 0.8217 255 40 40
24.2833 -1.9911 0.8217 255 40 40
24.2842 -2.0082 0.8217 255 40 40
24.2851 -2.0253 0.8217 255 40 40
24.2860 -2.0424 0.8217 255 40 40
24.2869 -2.0595 0.8217 255 40 40
24.2878 -2.0766 0.8217 255 40 40
24.2887 -2.0937 0.8217 255 40 40
24.2896 -2.1108 0.8217 255 40 40
24.2905 -2.1279 0.8217 255 40 40
24.2914 -2.1450 0.8217 255 40 40
24.2923 -2.1621 0.8217 255 40 40
24.2932 -2.1792 0.8217 255 40 40
24.2941 -2.1963 0.8217 255 40 40
24.2950 -2.2134 0.8217 255 40 40
24.2959 -2.2305 0.8217 255 40 40
24.2968 -2.2476 0.8217 255 40 40
24.2977 -2.2647 0.8217 255 40 40
24.2986 -2.2818 0.8217 255 40 40
24.2995 -2.2989 0.8217 255 40 40
24.3004 -2.3160 0.8217 255 40 40
24.3013 -2.3331 0.8217 255 40 40
24.3022 -2.3502 0.8217 255 40 40
24.3031 -2.3673 0.8217 255 40 40
24.3040 -2.3844 0.8217 255 40 40
24.3049 -2.4015 0.8217 255 40 40
24.3058 -2.4186 0.8217 255 40 40
24.3067 -2.4357 0.8217 255 40 40
24.3077 -2.4528 0.8217 255 40 40
24.3086 -2.4699 0.8217 255 40 40
24.3095 -2.4870 0.8217 255 40 40
24.3104 -2.5041 0.8217 255 40 40
24.3113 -2.5212 0.8217 255 40 40
24.3122 -2.5383 0.8217 255 40 40
24.3131 -2.5554 0.8217 255 40 40
24.3140 -2.5725 0.8217 255 40 40
24.3149 -2.5896 0.8217 255 40 40
24.3158 -2.6067 0.8217 255 40 40
24.3167 -2.6238 0.8217 255 40 40
24.3176 -2.6410 0.8217 255 40 40
24.3185 -2.6581 0.8217 255 40 40
24.3194 -2.6752 0.8217 255 40 40
24.3203 -2.6923 0.8217 255 40 40
24.3212 -2.7094 0.8217 255 40 40
24.3221 -2.7265 0.8217 255 40 40
24.3230 -2.7436 0.8217 255 40 40
24.3239 -2.7607 0.8217 255 40 40
24.3248 -2.7778 0.8217 255 40 40
24.3257 -2.7949 0.8217 255 40 40
24.3266 -2.8120 0.8217 255 40 40
24.3275 -2.8291 0.8217 255 40 40
24.3284 -2.8462 0.8217 255 40 40
24.3293 -2.8633 0.8217 255 40 40
24.3302 -2.8804 0.8217 255 40 40
24.3311 -2.8975 0.8217 255 40 40
24.3320 -2.9146 0.8217 255 40 40
24.3329 -2.9317 0.8217 255 40 40
24.3338 -2.9488 0.8217 255 40 40
24.3347 -2.9659 0.8217 255 40 40
24.3356 -2.9830 0.8217 255 40 40
24.3365 -3.0001 0.8217 255 40 40
24.3374 -3.0172 0.8217 255 40 40
24.3383 -3.0343 0.8217 255 40 40
24.3392 -3.0514 0.8217 255 40 40
24.3401 -3.0685 0.8217 255 40 40
24.3410 -3.0856 0.8217 255 40 40
24.3419 -3.1027 0.8217 255 40 40
24.3428 -3.1198 0.8217 255 40 40
24.3437 -3.1369 0.8217 255 40 40
24.3446 -3.1540 0.8217 255 40 40
24.3455 -3.1711 0.8217 255 40 40
24.3464 -3.1882 0.8217 255 40 40
24.3473 -3.2053 0.8217 255 40 40
24.3482 -3.2224 0.8217 255 40 40
24.3491 -3.2395 0.8217 255 40 40
24.3500 -3.2566 0.8217 255 40 40
24.3509 -3.2737 0.8217 255 40 40
24.3518 -3.2908 0.8217 255 40 40
24.3527 -3.3079 0.8217 255 40 40
24.3536 -3.3250 0.8217 255 40 40
24.3545 -3.3422 0.8217 255 40 40
24.3554 -3.3593 0.8217 255 40 40
24.3563 -3.3764 0.8217 255 40 40
24.3572 -3.3935 0.8217 255 40 40
24.3581 -3.4106 0.8217 255 40 40
24.3590 -3.4277 0.8217 255 40 40
24.3600 -3.4448 0.8217 255 40 40
24.3609 -3.4619 0.8217 255 40 40
24.3618 -3.4790 0.8217 255 40 40
24.3627 -3.4961 0.8217 255 40 40
24.3636 -3.5132 0.8217 255 40 40
24.3645 -3.5303 0.8217 255 40 40
24.3654 -3.5474 0.8217 255 40 40
24.3663 -3.5645 0.8217 255 40 40
24.3672 -3.5816 0.8217 255 40 40
24.3681 -3.5987 0.8217 255 40 40
24.3690 -3.6158 0.8217 255 40 40
24.3699 -3.6329 0.8217 255 40 40
24.3708 -3.6500 0.8217 255 40 40
24.3717 -3.6671 0.8217 255 40 40
24.3726 -3.6842 0.8217 255 40 40
24.3735 -3.7013 0.8217 255 40 40
24.3744 -3.7184 0.8217 255 40 40
24.3753 -3.7355 0.8217 255 40 40
24.3762 -3.7526 0.8217 255 40 40
24.3771 -3.7697 0.8217 255 40 40
24.3780 -3.7868 0.8217 255 40 40
24.3789 -3.8039 0.8217 255 40 40
24.3798 -3.8210 0.8217 255 40 40
24.3807 -3.8381 0.8217 255 40 40
24.3816 -3.8552 0.8217 255 40 40
24.3825 -3.8723 0.8217 255 40 40
24.3834 -3.8894 0.8217 255 40 40
24.3843 -3.9065 0.8217 255 40 40
24.3852 -3.9236 0.8217 255 40 40
24.3861 -3.9407 0.8217 255 40 40
24.3870 -3.9578 0.8217 255 40 40
24.3879 -3.9749 0.8217 255 40 40
24.3888 -3.9920 0.8217 255 40 40
24.3897 -4.0091 0.8217 255 40 40
24.3906 -4.0262 0.8217 255 40 40
24.3915 -4.0434 0.8217 255 40 40
24.3924 -4.0605 0.8217 255 40 40
24.3933 -4.0776 0.8217 255 40 40
24.3942 -4.0947 0.8217 255 40 40
24.3951 -4.1118 0.8217 255 40 40
24.3960 -4.1289 0.8217 255 40 40
24.3969 -4.1460 0.8217 255 40 40
24.3978 -4.1631 0.8217 255 40 40
24.3987 -4.1802 0.8217 255 40 40
24.3996 -4.1973 0.8217 255 40 40
24.4005 -4.2144 0.8217 255 40 40
24.4014 -4.2315 0.8217 255 40 40
24.4023 -4.2486 0.8217 255 40 40
24.4032 -4.2657 0.8217 255 40 40
24.4041 -4.2828 0.8217 255 40 40
24.4050 -4.2999 0.8217 255 40 40
24.4059 -4.3170 0.8217 255 40 40
24.4068 -4.3341 0.8217 255 40 40
24.4068 -4.3341 0.8217 255 40 40
24.4672 -4.3309 0.8217 255 40 40
24.5276 -4.3277 0.8217 255 40 40
24.5880 -4.3245 0.8217 255 40 40
24.6484 -4.3214 0.8217 255 40 40
24.7088 -4.3182 0.8217 255 40 40
24.7691 -4.3150 0.8217 255 40 40
24.8295 -4.3118 0.8217 255 40 40
24.8899 -4.3086 0.8217 255 40 40
24.9503 -4.3054 0.8217 255 40 40
25.0107 -4.3023 0.8217 255 40 40
25.0711 -4.2991 0.8217 255 40 40
25.1314 -4.2959 0.8217 255 40 40
25.1918 -4.2927 0.8217 255 40 40
25.2522 -4.2895 0.8217 255 40 40
25.3126 -4.2863 0.8217 255 40 40
25.3730 -4.2832 0.8217 255 40 40
25.4333 -4.2800 0.8217 255 40 40
25.4937 -4.2768 0.8217 255 40 40
25.5541 -4.2736 0.8217 255 40 40
25.6145 -4.2704 0.8217 255 40 40
25.6749 -4.2672 0.8217 255 40 40
25.7353 -4.2641 0.8217 255 40 40
25.7956 -4.2609 0.8217 255 40 40
25.8560 -4.2577 0.8217 255 40 40
25.9164 -4.2545 0.8217 255 40 40
25.9768 -4.2513 0.8217 255 40 40
26.0372 -4.2481 0.8217 255 40 40
26.0976 -4.2449 0.8217 255 40 40
26.1579 -4.2418 0.8217 255 40 40
26.2183 -4.2386 0.8217 255 40 40
26.2787 -4.2354 0.8217 255 40 40
26.3391 -4.2322 0.8217 255 40 40
26.3995 -4.2290 0.8217 255 40 40
26.4599 -4.2258 0.8217 255 40 40
26.5202 -4.2227 0.8217 255 40 40
26.5806 -4.2195 0.8217 255 40 40
26.6410 -4.2163 0.8217 255 40 40
26.7014 -4.2131 0.8217 255 40 40
26.7618 -4.2099 0.8217 255 40 40
26.8222 -4.2067 0.8217 255 40 40
26.8825 -4.2036 0.8217 255 40 40
26.9429 -4.2004 0.8217 255 40 40
27.0033 -4.1972 0.8217 255 40 40
27.0637 -4.1940 0.8217 255 40 40
27.1241 -4.1908 0.8217 255 40 40
27.1844 -4.1876 0.8217 255 40 40
27.2448 -4.1845 0.8217 255 40 40
27.3052 -4.1813 0.8217 255 40 40
27.3656 -4.1781 0.8217 255 40 40
27.4260 -4.1749 0.8217 255 40 40
27.4864 -4.1717 0.8217 255 40 40
27.5467 -4.1685 0.8217 255 40 40
27.6071 -4.1654 0.8217 255 40 40
27.6675 -4.1622 0.8217 255 40 40
27.7279 -4.1590 0.8217 255 40 40
27.7883 -4.1558 0.8217 255 40 40
27.8487 -4.1526 0.8217 255 40 40
27.9090 -4.1494 0.8217 255 40 40
27.9694 -4.1463 0.8217 255 40 40
28.0298 -4.1431 0.8217 255 40 40
28.0902 -4.1399 0.8217 255 40 40
28.1506 -4.1367 0.8217 255 40 40
28.2110 -4.1335 0.8217 255 40 40
28.2713 -4.1303 0.8217 255 40 40
28.3317 -4.1272 0.8217 255 40 40
28.3921 -4.1240 0.8217 255 40 40
28.4525 -4.1208 0.8217 255 40 40
28.5129 -4.1176 0.8217 255 40 40
28.5733 -4.1144 0.8217 255 40 40
28.6336 -4.1112 0.8217 255 40 40
28.6940 -4.1081 0.8217 255 40 40
28.7544 -4.1049 0.8217 255 40 40
28.8148 -4.1017 0.8217 255 40 40
28.8752 -4.0985 0.8217 255 40 40
28.9355 -4.0953 0.8217 255 40 40
28.9959 -4.0921 0.8217 255 40 40
29.0563 -4.0890 0.8217 255 40 40
29.1167 -4.0858 0.8217 255 40 40
29.1771 -4.0826 0.8217 255 40 40
29.2375 -4.0794 0.8217 255 40 40
29.2978 -4.0762 0.8217 255 40 40
29.3582 -4.0730 0.8217 255 40 40
29.4186 -4.0698 0.8217 255 40 40
29.4790 -4.0667 0.8217 255 40 40
29.5394 -4.0635 0.8217 255 40 40
29.5998 -4.0603 0.8217 255 40 40
29.6601 -4.0571 0.8217 255 40 40
29.7205 -4.0539 0.8217 255 40 40
29.7809 -4.0507 0.8217 255 40 40
29.8413 -4.0476 0.8217 255 40 40
29.9017 -4.0444 0.8217 255 40 40
29.9621 -4.0412 0.8217 255 40 40
30.0224 -4.0380 0.8217 255 40 40
30.0828 -4.0348 0.8217 255 40 40
30.1432 -4.0316 0.8217 255 40 40
30.2036 -4.0285 0.8217 255 40 40
30.2640 -4.0253 0.8217 255 40 40
30.3244 -4.0221 0.8217 255 40 40
30.3847 -4.0189 0.8217 255 40 40
30.4451 -4.0157 0.8217 255 40 40
30.5055 -4.0125 0.8217 255 40 40
30.5659 -4.0094 0.8217 255 40 40
30.6263 -4.0062 0.8217 255 40 40
30.6866 -4.0030 0.8217 255 40 40
30.7470 -3.9998 0.8217 255 40 40
30.8074 -3.9966 0.8217 255 40 40
30.8678 -3.9934 0.8217 255 40 40
30.9282 -3.9903 0.8217 255 40 40
30.9886 -3.9871 0.8217 255 40 40
31.0489 -3.9839 0.8217 255 40 40
31.1093 -3.9807 0.8217 255 40 40
31.1697 -3.9775 0.8217 255 40 40
31.2301 -3.9743 0.8217 255 40 40
31.2905 -3.9712 0.8217 255 40 40
31.3509 -3.9680 0.8217 255 40 40
31.4112 -3.9648 0.8217 255 40 40
31.4716 -3.9616 0.8217 255 40 40
31.5320 -3.9584 0.8217 255 40 40
31.5924 -3.9552 0.8217 255 40 40
31.6528 -3.9521 0.8217 255 40 40
31.7132 -3.9489 0.8217 255 40 40
31.7735 -3.9457 0.8217 255 40 40
31.8339 -3.9425 0.8217 255 40 40
31.8943 -3.9393 0.8217 255 40 40
31.9547 -3.9361 0.8217 255 40 40
32.0151 -3.9330 0.8217 255 40 40
32.0755 -3.9298 0.8217 255 40 40
32.1358 -3.9266 0.8217 255 40 40
32.1962 -3.9234 0.8217 255 40 40
32.2566 -3.9202 0.8217 255 40 40
32.3170 -3.9170 0.8217 255 40 40
32.3774 -3.9138 0.8217 255 40 40
32.4377 -3.9107 0.8217 255 40 40
32.4981 -3.9075 0.8217 255 40 40
32.5585 -3.9043 0.8217 255 40 40
32.6189 -3.9011 0.8217 255 40 40
32.6793 -3.8979 0.8217 255 40 40
32.7397 -3.8947 0.8217 255 40 40
32.8000 -3.8916 0.8217 255 40 40
32.8604 -3.8884 0.8217 255 40 40
32.9208 -3.8852 0.8217 255 40 40
32.9812 -3.8820 0.8217 255 40 40
33.0416 -3.8788 0.8217 255 40 40
33.1020 -3.8756 0.8217 255 40 40
33.1623 -3.8725 0.8217 255 40 40
33.2227 -3.8693 0.8217 255 40 40
33.2831 -3.8661 0.8217 255 40 40
33.3435 -3.8629 0.8217 255 40 40
33.4039 -3.8597 0.8217 255 40 40
33.4643 -3.8565 0.8217 255 40 40
33.5246 -3.8534 0.8217 255 40 40
33.5850 -3.8502 0.8217 255 40 40
33.6454 -3.8470 0.8217 255 40 40
33.7058 -3.8438 0.8217 255 40 40
33.7662 -3.8406 0.8217 255 40 40
33.8266 -3.8374 0.8217 255 40 40
33.8869 -3.8343 0.8217 255 40 40
33.9473 -3.8311 0.8217 255 40 40
34.0077 -3.8279 0.8217 255 40 40
34.0681 -3.8247 0.8217 255 40 40
34.1285 -3.8215 0.8217 255 40 40
34.1889 -3.8183 0.8217 255 40 40
34.2492 -3.8152 0.8217 255 40 40
34.3096 -3.8120 0.8217 255 40 40
34.3700 -3.8088 0.8217 255 40 40
34.3700 -3.8088 0.8217 255 40 40
34.3691 -3.7917 0.8217 255 40 40
34.3682 -3.7746 0.8217 255 40 40
34.3673 -3.7575 0.8217 255 40 40
34.3664 -3.7404 0.8217 255 40 40
34.3655 -3.7233 0.8217 255 40 40
34.3646 -3.7062 0.8217 255 40 40
34.3637 -3.6891 0.8217 255 40 40
34.3628 -3.6720 0.8217 255 40 40
34.3619 -3.6549 0.8217 255 40 40
34.3610 -3.6378 0.8217 255 40 40
34.3601 -3.6207 0.8217 255 40 40
34.3592 -3.6036 0.8217 255 40 40
34.3583 -3.5865 0.8217 255 40 40
34.3574 -3.5694 0.8217 255 40 40
34.3565 -3.5523 0.8217 255 40 40
34.3556 -3.5351 0.8217 255 40 40
34.3547 -3.5180 0.8217 255 40 40
34.3538 -3.5009 0.8217 255 40 40
34.3529 -3.4838 0.8217 255 40 40
34.3520 -3.4667 0.8217 255 40 40
34.3511 -3.4496 0.8217 255 40 40
34.3502 -3.4325 0.8217 255 40 40
34.3493 -3.4154 0.8217 255 40 40
34.3484 -3.3983 0.8217 255 40 40
34.3475 -3.3812 0.8217 255 40 40
34.3466 -3.3641 0.8217 255 40 40
34.3457 -3.3470 0.8217 255 40 40
34.3447 -3.3299 0.8217 255 40 40
34.3438 -3.3128 0.8217 255 40 40
34.3429 -3.2957 0.8217 255 40 40
34.3420 -3.2786 0.8217 255 40 40
34.3411 -3.2615 0.8217 255 40 40
34.3402 -3.2444 0.8217 255 40 40
34.3393 -3.2273 0.8217 255 40 40
34.3384 -3.2102 0.8217 255 40 40
34.3375 -3.1931 0.8217 255 40 40
34.3366 -3.1760 0.8217 255 40 40
34.3357 -3.1589 0.8217 255 40 40
34.3348 -3.1418 0.8217 255 40 40
34.3339 -3.1247 0.8217 255 40 40
34.3330 -3.1076 0.8217 255 40 40
34.3321 -3.0905 0.8217 255 40 40
34.3312 -3.0734 0.8217 255 40 40
34.3303 -3.0563 0.8217 255 40 40
34.3294 -3.0392 0.8217 255 40 40
34.3285 -3.0221 0.8217 255 40 40
34.3276 -3.0050 0.8217 255 40 40
34.3267 -2.9879 0.8217 255 40 40
34.3258 -2.9708 0.8217 255 40 40
34.3249 -2.9537 0.8217 255 40 40
34.3240 -2.9366 0.8217 255 40 40
34.3231 -2.9195 0.8217 255 40 40
34.3222 -2.9024 0.8217 255 40 40
34.3213 -2.8853 0.8217 255 40 40
34.3204 -2.8682 0.8217 255 40 40
34.3195 -2.8511 0.8217 255 40 40
34.3186 -2.8340 0.8217 255 40 40
34.3177 -2.8168 0.8217 255 40 40
34.3168 -2.7997 0.8217 255 40 40
34.3159 -2.7826 0.8217 255 40 40
34.3150 -2.7655 0.8217 255 40 40
34.3141 -2.7484 0.8217 255 40 40
34.3132 -2.7313 0.8217 255 40 40
34.3123 -2.7142 0.8217 255 40 40
34.3114 -2.6971 0.8217 255 40 40
34.3105 -2.6800 0.8217 255 40 40
34.3096 -2.6629 0.8217 255 40 40
34.3087 -2.6458 0.8217 255 40 40
34.3078 -2.6287 0.8217 255 40 40
34.3069 -2.6116 0.8217 255 40 40
34.3060 -2.5945 0.8217 255 40 40
34.3051 -2.5774 0.8217 255 40 40
34.3042 -2.5603 0.8217 255 40 40
34.3033 -2.5432 0.8217 255 40 40
34.3024 -2.5261 0.8217 255 40 40
34.3015 -2.5090 0.8217 255 40 40
34.3006 -2.4919 0.8217 255 40 40
34.2997 -2.4748 0.8217 255 40 40
34.2988 -2.4577 0.8217 255 40 40
34.2979 -2.4406 0.8217 255 40 40
34.2970 -2.4235 0.8217 255 40 40
34.2961 -2.4064 0.8217 255 40 40
34.2952 -2.3893 0.8217 255 40 40
34.2943 -2.3722 0.8217 255 40 40
34.2934 -2.3551 0.8217 255 40 40
34.2924 -2.3380 0.8217 255 40 40
34.2915 -2.3209 0.8217 255 40 40
34.2906 -2.3038 0.8217 255 40 40
34.2897 -2.2867 0.8217 255 40 40
34.2888 -2.2696 0.8217 255 40 40
34.2879 -2.2525 0.8217 255 40 40
34.2870 -2.2354 0.8217 255 40 40
34.2861 -2.2183 0.8217 255 40 40
34.2852 -2.2012 0.8217 255 40 40
34.2843 -2.1841 0.8217 255 40 40
34.2834 -2.1670 0.8217 255 40 40
34.2825 -2.1499 0.8217 255 40 40
34.2816 -2.1328 0.8217 255 40 40
34.2807 -2.1156 0.8217 255 40 40
34.2798 -2.0985 0.8217 255 40 40
34.2789 -2.0814 0.8217 255 40 40
34.2780 -2.0643 0.8217 255 40 40
34.2771 -2.0472 0.8217 255 40 40
34.2762 -2.0301 0.8217 255 40 40
34.2753 -2.0130 0.8217 255 40 40
34.2744 -1.9959 0.8217 255 40 40
34.2735 -1.9788 0.8217 255 40 40
34.2726 -1.9617 0.8217 255 40 40
34.2717 -1.9446 0.8217 255 40 40
34.2708 -1.9275 0.8217 255 40 40
34.2699 -1.9104 0.8217 255 40 40
34.2690 -1.8933 0.8217 255 40 40
34.2681 -1.8762 0.8217 255 40 40
34.2672 -1.8591 0.8217 255 40 40
34.2663 -1.8420 0.8217 255 40 40
34.2654 -1.8249 0.8217 255 40 40
34.2645 -1.8078 0.8217 255 40 40
34.2636 -1.7907 0.8217 255 40 40
34.2627 -1.7736 0.8217 255 40 40
34.2618 -1.7565 0.8217 255 40 40
34.2609 -1.7394 0.8217 255 40 40
34.2600 -1.7223 0.8217 255 40 40
34.2591 -1.7052 0.8217 255 40 40
34.2582 -1.6881 0.8217 255 40 40
34.2573 -1.6710 0.8217 255 40 40
34.2564 -1.6539 0.8217 255 40 40
34.2555 -1.6368 0.8217 255 40 40
34.2546 -1.6197 0.8217 255 40 40
34.2537 -1.6026 0.8217 255 40 40
34.2528 -1.5855 0.8217 255 40 40
34.2519 -1.5684 0.8217 255 40 40
34.2510 -1.5513 0.8217 255 40 40
34.2501 -1.5342 0.8217 255 40 40
34.2492 -1.5171 0.8217 255 40 40
34.2483 -1.5000 0.8217 255 40 40
34.2474 -1.4829 0.8217 255 40 40
34.2465 -1.4658 0.8217 255 40 40
34.2456 -1.4487 0.8217 255 40 40
34.2447 -1.4316 0.8217 255 40 40
34.2438 -1.4144 0.8217 255 40 40
34.2429 -1.3973 0.8217 255 40 40
34.2420 -1.3802 0.8217 255 40 40
34.2411 -1.3631 0.8217 255 40 40
34.2402 -1.3460 0.8217 255 40 40
34.2393 -1.3289 0.8217 255 40 40
34.2383 -1.3118 0.8217 255 40 40
34.2374 -1.2947 0.8217 255 40 40
34.2365 -1.2776 0.8217 255 40 40
34.2356 -1.2605 0.8217 255 40 40
34.2347 -1.2434 0.8217 255 40 40
34.2338 -1.2263 0.8217 255 40 40
34.2329 -1.2092 0.8217 255 40 40
34.2320 -1.1921 0.8217 255 40 40
34.2311 -1.1750 0.8217 255 40 40
34.2302 -1.1579 0.8217 255 40 40
34.2293 -1.1408 0.8217 255 40 40
34.2284 -1.1237 0.8217 255 40 40
34.2275 -1.1066 0.8217 255 40 40
34.2266 -1.0895 0.8217 255 40 40
34.2257 -1.0724 0.8217 255 40 40
34.2248 -1.0553 0.8217 255 40 40
34.2239 -1.0382 0.8217 255 40 40
34.2230 -1.0211 0.8217 255 40 40
34.2221 -1.0040 0.8217 255 40 40
34.2212 -0.9869 0.8217 255 40 40
34.2212 -0.9869 3.8087 255 40 40
34.1608 -0.9901 3.8087 255 40 40
34.1004 -0.9933 3.8087 255 40 40
34.0401 -0.9964 3.8087 255 40 40
33.9797 -0.9996 3.8087 255 40 40
33.9193 -1.0028 3.8087 255 40 40
33.8589 -1.0060 3.8087 255 40 40
33.7985 -1.0092 3.8087 255 40 40
33.7382 -1.0124 3.8087 255 40 40
33.6778 -1.0155 3.8087 255 40 40
33.6174 -1.0187 3.8087 255 40 40
33.5570 -1.0219 3.8087 255 40 40
33.4966 -1.0251 3.8087 255 40 40
33.4362 -1.0283 3.8087 255 40 40
33.3759 -1.0315 3.8087 255 40 40
33.3155 -1.0346 3.8087 255 40 40
33.2551 -1.0378 3.8087 255 40 40
33.1947 -1.0410 3.8087 255 40 40
33.1343 -1.0442 3.8087 255 40 40
33.0739 -1.0474 3.8087 255 40 40
