ply
format ascii 1.0
element vertex 1485
property float x
property float y
property float z
property uchar red
property uchar green
property uchar blue
end_header
24.3287 8.6752 2.0471 0 255 0
24.3287 8.6752 0.4501 0 255 0
24.3287 8.6752 0.4598 0 255 0
24.3287 8.6752 0.4695 0 255 0
24.3287 8.6752 0.4792 0 255 0
24.3287 8.6752 0.4888 0 255 0
24.3287 8.6752 0.4985 0 255 0
24.3287 8.6752 0.5082 0 255 0
24.3287 8.6752 0.5179 0 255 0
24.3287 8.6752 0.5276 0 255 0
24.3287 8.6752 0.5372 0 255 0
24.3287 8.6752 0.5469 0 255 0
24.3287 8.6752 0.5566 0 255 0
24.3287 8.6752 0.5663 0 255 0
24.3287 8.6752 0.5759 0 255 0
24.3287 8.6752 0.5856 0 255 0
24.3287 8.6752 0.5953 0 255 0
24.3287 8.6752 0.6050 0 255 0
24.3287 8.6752 0.6147 0 255 0
24.3287 8.6752 0.6243 0 255 0
24.3287 8.6752 0.6340 0 255 0
24.3287 8.6752 0.6437 0 255 0
24.3287 8.6752 0.6534 0 255 0
24.3287 8.6752 0.6631 0 255 0
24.3287 8.6752 0.6727 0 255 0
24.3287 8.6752 0.6824 0 255 0
24.3287 8.6752 0.6921 0 255 0
24.3287 8.6752 0.7018 0 255 0
24.3287 8.6752 0.7114 0 255 0
24.3287 8.6752 0.7211 0 255 0
24.3287 8.6752 0.7308 0 255 0
24.3287 8.6752 0.7405 0 255 0
24.3287 8.6752 0.7502 0 255 0
24.3287 8.6752 0.7598 0 255 0
24.3287 8.6752 0.7695 0 255 0
24.3287 8.6752 0.7792 0 255 0
24.3287 8.6752 0.7889 0 255 0
24.3287 8.6752 0.7986 0 255 0
24.3287 8.6752 0.8082 0 255 0
24.3287 8.6752 0.8179 0 255 0
24.3287 8.6752 0.8276 0 255 0
24.3287 8.6752 0.8373 0 255 0
24.3287 8.6752 0.8470 0 255 0
24.3287 8.6752 0.8566 0 255 0
24.3287 8.6752 0.8663 0 255 0
24.3287 8.6752 0.8760 0 255 0
24.3287 8.6752 0.8857 0 255 0
24.3287 8.6752 0.8953 0 255 0
24.3287 8.6752 0.9050 0 255 0
24.3287 8.6752 0.9147 0 255 0
24.3287 8.6752 0.9244 0 255 0
24.3287 8.6752 0.9341 0 255 0
24.3287 8.6752 0.9437 0 255 0
24.3287 8.6752 0.9534 0 255 0
24.3287 8.6752 0.9631 0 255 0
24.3287 8.6752 0.9728 0 255 0
24.3287 8.6752 0.9825 0 255 0
24.3287 8.6752 0.9921 0 255 0
24.3287 8.6752 1.0018 0 255 0
24.3287 8.6752 1.0115 0 255 0
24.3287 8.6752 1.0212 0 255 0
24.3287 8.6752 1.0308 0 255 0
24.3287 8.6752 1.0405 0 255 0
24.3287 8.6752 1.0502 0 255 0
24.3287 8.6752 1.0599 0 255 0
24.3287 8.6752 1.0696 0 255 0
24.3287 8.6752 1.0792 0 255 0
24.3287 8.6752 1.0889 0 255 0
24.3287 8.6752 1.0986 0 255 0
24.3287 8.6752 1.1083 0 255 0
24.3287 8.6752 1.1180 0 255 0
24.3287 8.6752 1.1276 0 255 0
24.3287 8.6752 1.1373 0 255 0
24.3287 8.6752 1.1470 0 255 0
24.3287 8.6752 1.1567 0 255 0
24.3287 8.6752 1.1664 0 255 0
24.3287 8.6752 1.1760 0 255 0
24.3287 8.6752 1.1857 0 255 0
24.3287 8.6752 1.1954 0 255 0
24.3287 8.6752 1.2051 0 255 0
24.3287 8.6752 1.2147 0 255 0
24.3287 8.6752 1.2244 0 255 0
24.3287 8.6752 1.2341 0 255 0
24.3287 8.6752 1.2438 0 255 0
24.3287 8.6752 1.2535 0 255 0
24.3287 8.6752 1.2631 0 255 0
24.3287 8.6752 1.2728 0 255 0
24.3287 8.6752 1.2825 0 255 0
24.3287 8.6752 1.2922 0 255 0
24.3287 8.6752 1.3019 0 255 0
24.3287 8.6752 1.3115 0 255 0
24.3287 8.6752 1.3212 0 255 0
24.3287 8.6752 1.3309 0 255 0
24.3287 8.6752 1.3406 0 255 0
24.3287 8.6752 1.3502 0 255 0
24.3287 8.6752 1.3599 0 255 0
24.3287 8.6752 1.3696 0 255 0
24.3287 8.6752 1.3793 0 255 0
24.3287 8.6752 1.3890 0 255 0
24.3287 8.6752 1.3986 0 255 0
24.3287 8.6752 1.4083 0 255 0
24.3287 8.6752 1.4180 0 255 0
24.3287 8.6752 1.4277 0 255 0
24.3287 8.6752 1.4374 0 255 0
24.3287 8.6752 1.4470 0 255 0
24.3287 8.6752 1.4567 0 255 0
24.3287 8.6752 1.4664 0 255 0
24.3287 8.6752 1.4761 0 255 0
24.3287 8.6752 1.4858 0 255 0
24.3287 8.6752 1.4954 0 255 0
24.3287 8.6752 1.5051 0 255 0
24.3287 8.6752 1.5148 0 255 0
24.3287 8.6752 1.5245 0 255 0
24.3287 8.6752 1.5341 0 255 0
24.3287 8.6752 1.5438 0 255 0
24.3287 8.6752 1.5535 0 255 0
24.3287 8.6752 1.5632 0 255 0
24.3287 8.6752 1.5729 0 255 0
24.3287 8.6752 1.5825 0 255 0
24.3287 8.6752 1.5922 0 255 0
24.3287 8.6752 1.6019 0 255 0
24.3287 8.6752 1.6116 0 255 0
24.3287 8.6752 1.6213 0 255 0
24.3287 8.6752 1.6309 0 255 0
24.3287 8.6752 1.6406 0 255 0
24.3287 8.6752 1.6503 0 255 0
24.3287 8.6752 1.6600 0 255 0
24.3287 8.6752 1.6696 0 255 0
24.3287 8.6752 1.6793 0 255 0
24.3287 8.6752 1.6890 0 255 0
24.3287 8.6752 1.6987 0 255 0
24.3287 8.6752 1.7084 0 255 0
24.3287 8.6752 1.7180 0 255 0
24.3287 8.6752 1.7277 0 255 0
24.3287 8.6752 1.7374 0 255 0
24.3287 8.6752 1.7471 0 255 0
24.3287 8.6752 1.7568 0 255 0
24.3287 8.6752 1.7664 0 255 0
24.3287 8.6752 1.7761 0 255 0
24.3287 8.6752 1.7858 0 255 0
24.3287 8.6752 1.7955 0 255 0
24.3287 8.6752 1.8052 0 255 0
24.3287 8.6752 1.8148 0 255 0
24.3287 8.6752 1.8245 0 255 0
24.3287 8.6752 1.8342 0 255 0
24.3287 8.6752 1.8439 0 255 0
24.3287 8.6752 1.8535 0 255 0
24.3287 8.6752 1.8632 0 255 0
24.3287 8.6752 1.8729 0 255 0
24.3287 8.6752 1.8826 0 255 0
24.3287 8.6752 1.8923 0 255 0
24.3287 8.6752 1.9019 0 255 0
24.3287 8.6752 1.9116 0 255 0
24.3287 8.6752 1.9213 0 255 0
24.3287 8.6752 1.9310 0 255 0
24.3287 8.6752 1.9407 0 255 0
24.3287 8.6752 1.9503 0 255 0
24.3287 8.6752 1.9600 0 255 0
24.3287 8.6752 1.9697 0 255 0
24.3287 8.6752 1.9794 0 255 0
24.3287 8.6752 1.9890 0 255 0
24.3287 8.6752 1.9987 0 255 0
24.3287 8.6752 2.0084 0 255 0
24.3287 8.6752 2.0181 0 255 0
24.3287 8.6752 2.0278 0 255 0
24.3287 8.6752 2.0374 0 255 0
24.3287 8.6752 2.0471 0 255 0
22.8703 3.9156 0.4501 0 255 0
22.8703 3.9156 0.4598 0 255 0
22.8703 3.9156 0.4695 0 255 0
22.8703 3.9156 0.4792 0 255 0
22.8703 3.9156 0.4888 0 255 0
22.8703 3.9156 0.4985 0 255 0
22.8703 3.9156 0.5082 0 255 0
22.8703 3.9156 0.5179 0 255 0
22.8703 3.9156 0.5276 0 255 0
22.8703 3.9156 0.5372 0 255 0
22.8703 3.9156 0.5469 0 255 0
22.8703 3.9156 0.5566 0 255 0
22.8703 3.9156 0.5663 0 255 0
22.8703 3.9156 0.5759 0 255 0
22.8703 3.9156 0.5856 0 255 0
22.8703 3.9156 0.5953 0 255 0
22.8703 3.9156 0.6050 0 255 0
22.8703 3.9156 0.6147 0 255 0
22.8703 3.9156 0.6243 0 255 0
22.8703 3.9156 0.6340 0 255 0
22.8703 3.9156 0.6437 0 255 0
22.8703 3.9156 0.6534 0 255 0
22.8703 3.9156 0.6631 0 255 0
22.8703 3.9156 0.6727 0 255 0
22.8703 3.9156 0.6824 0 255 0
22.8703 3.9156 0.6921 0 255 0
22.8703 3.9156 0.7018 0 255 0
22.8703 3.9156 0.7114 0 255 0
22.8703 3.9156 0.7211 0 255 0
22.8703 3.9156 0.7308 0 255 0
22.8703 3.9156 0.7405 0 255 0
22.8703 3.9156 0.7502 0 255 0
22.8703 3.9156 0.7598 0 255 0
22.8703 3.9156 0.7695 0 255 0
22.8703 3.9156 0.7792 0 255 0
22.8703 3.9156 0.7889 0 255 0
22.8703 3.9156 0.7986 0 255 0
22.8703 3.9156 0.8082 0 255 0
22.8703 3.9156 0.8179 0 255 0
22.8703 3.9156 0.8276 0 255 0
22.8703 3.9156 0.8373 0 255 0
22.8703 3.9156 0.8470 0 255 0
22.8703 3.9156 0.8566 0 255 0
22.8703 3.9156 0.8663 0 255 0
22.8703 3.9156 0.8760 0 255 0
22.8703 3.9156 0.8857 0 255 0
22.8703 3.9156 0.8953 0 255 0
22.8703 3.9156 0.9050 0 255 0
22.8703 3.9156 0.9147 0 255 0
22.8703 3.9156 0.9244 0 255 0
22.8703 3.9156 0.9341 0 255 0
22.8703 3.9156 0.9437 0 255 0
22.8703 3.9156 0.9534 0 255 0
22.8703 3.9156 0.9631 0 255 0
22.8703 3.9156 0.9728 0 255 0
22.8703 3.9156 0.9825 0 255 0
22.8703 3.9156 0.9921 0 255 0
22.8703 3.9156 1.0018 0 255 0
22.8703 3.9156 1.0115 0 255 0
22.8703 3.9156 1.0212 0 255 0
22.8703 3.9156 1.0308 0 255 0
22.8703 3.9156 1.0405 0 255 0
22.8703 3.9156 1.0502 0 255 0
22.8703 3.9156 1.0599 0 255 0
22.8703 3.9156 1.0696 0 255 0
22.8703 3.9156 1.0792 0 255 0
22.8703 3.9156 1.0889 0 255 0
22.8703 3.9156 1.0986 0 255 0
22.8703 3.9156 1.1083 0 255 0
22.8703 3.9156 1.1180 0 255 0
22.8703 3.9156 1.1276 0 255 0
22.8703 3.9156 1.1373 0 255 0
22.8703 3.9156 1.1470 0 255 0
22.8703 3.9156 1.1567 0 255 0
22.8703 3.9156 1.1664 0 255 0
22.8703 3.9156 1.1760 0 255 0
22.8703 3.9156 1.1857 0 255 0
22.8703 3.9156 1.1954 0 255 0
22.8703 3.9156 1.2051 0 255 0
22.8703 3.9156 1.2147 0 255 0
22.8703 3.9156 1.2244 0 255 0
22.8703 3.9156 1.2341 0 255 0
22.8703 3.9156 1.2438 0 255 0
22.8703 3.9156 1.2535 0 255 0
22.8703 3.9156 1.2631 0 255 0
22.8703 3.9156 1.2728 0 255 0
22.8703 3.9156 1.2825 0 255 0
22.8703 3.9156 1.2922 0 255 0
22.8703 3.9156 1.3019 0 255 0
22.8703 3.9156 1.3115 0 255 0
22.8703 3.9156 1.3212 0 255 0
22.8703 3.9156 1.3309 0 255 0
22.8703 3.9156 1.3406 0 255 0
22.8703 3.9156 1.3502 0 255 0
22.8703 3.9156 1.3599 0 255 0
22.8703 3.9156 1.3696 0 255 0
22.8703 3.9156 1.3793 0 255 0
22.8703 3.9156 1.3890 0 255 0
22.8703 3.9156 1.3986 0 255 0
22.8703 3.9156 1.4083 0 255 0
22.8703 3.9156 1.4180 0 255 0
22.8703 3.9156 1.4277 0 255 0
22.8703 3.9156 1.4374 0 255 0
22.8703 3.9156 1.4470 0 255 0
22.8703 3.9156 1.4567 0 255 0
22.8703 3.9156 1.4664 0 255 0
22.8703 3.9156 1.4761 0 255 0
22.8703 3.9156 1.4858 0 255 0
22.8703 3.9156 1.4954 0 255 0
22.8703 3.9156 1.5051 0 255 0
22.8703 3.9156 1.5148 0 255 0
22.8703 3.9156 1.5245 0 255 0
22.8703 3.9156 1.5341 0 255 0
22.8703 3.9156 1.5438 0 255 0
22.8703 3.9156 1.5535 0 255 0
22.8703 3.9156 1.5632 0 255 0
22.8703 3.9156 1.5729 0 255 0
22.8703 3.9156 1.5825 0 255 0
22.8703 3.9156 1.5922 0 255 0
22.8703 3.9156 1.6019 0 255 0
22.8703 3.9156 1.6116 0 255 0
22.8703 3.9156 1.6213 0 255 0
22.8703 3.9156 1.6309 0 255 0
22.8703 3.9156 1.6406 0 255 0
22.8703 3.9156 1.6503 0 255 0
22.8703 3.9156 1.6600 0 255 0
22.8703 3.9156 1.6696 0 255 0
22.8703 3.9156 1.6793 0 255 0
22.8703 3.9156 1.6890 0 255 0
22.8703 3.9156 1.6987 0 255 0
22.8703 3.9156 1.7084 0 255 0
22.8703 3.9156 1.7180 0 255 0
22.8703 3.9156 1.7277 0 255 0
22.8703 3.9156 1.7374 0 255 0
22.8703 3.9156 1.7471 0 255 0
22.8703 3.9156 1.7568 0 255 0
22.8703 3.9156 1.7664 0 255 0
22.8703 3.9156 1.7761 0 255 0
22.8703 3.9156 1.7858 0 255 0
22.8703 3.9156 1.7955 0 255 0
22.8703 3.9156 1.8052 0 255 0
22.8703 3.9156 1.8148 0 255 0
22.8703 3.9156 1.8245 0 255 0
22.8703 3.9156 1.8342 0 255 0
22.8703 3.9156 1.8439 0 255 0
22.8703 3.9156 1.8535 0 255 0
22.8703 3.9156 1.8632 0 255 0
22.8703 3.9156 1.8729 0 255 0
22.8703 3.9156 1.8826 0 255 0
22.8703 3.9156 1.8923 0 255 0
22.8703 3.9156 1.9019 0 255 0
22.8703 3.9156 1.9116 0 255 0
22.8703 3.9156 1.9213 0 255 0
22.8703 3.9156 1.9310 0 255 0
22.8703 3.9156 1.9407 0 255 0
22.8703 3.9156 1.9503 0 255 0
22.8703 3.9156 1.9600 0 255 0
22.8703 3.9156 1.9697 0 255 0
22.8703 3.9156 1.9794 0 255 0
22.8703 3.9156 1.9890 0 255 0
22.8703 3.9156 1.9987 0 255 0
22.8703 3.9156 2.0084 0 255 0
22.8703 3.9156 2.0181 0 255 0
22.8703 3.9156 2.0278 0 255 0
22.8703 3.9156 2.0374 0 255 0
22.8703 3.9156 2.0471 0 255 0
24.8982 3.2942 0.4501 0 255 0
24.8982 3.2942 0.4598 0 255 0
24.8982 3.2942 0.4695 0 255 0
24.8982 3.2942 0.4792 0 255 0
24.8982 3.2942 0.4888 0 255 0
24.8982 3.2942 0.4985 0 255 0
24.8982 3.2942 0.5082 0 255 0
24.8982 3.2942 0.5179 0 255 0
24.8982 3.2942 0.5276 0 255 0
24.8982 3.2942 0.5372 0 255 0
24.8982 3.2942 0.5469 0 255 0
24.8982 3.2942 0.5566 0 255 0
24.8982 3.2942 0.5663 0 255 0
24.8982 3.2942 0.5759 0 255 0
24.8982 3.2942 0.5856 0 255 0
24.8982 3.2942 0.5953 0 255 0
24.8982 3.2942 0.6050 0 255 0
24.8982 3.2942 0.6147 0 255 0
24.8982 3.2942 0.6243 0 255 0
24.8982 3.2942 0.6340 0 255 0
24.8982 3.2942 0.6437 0 255 0
24.8982 3.2942 0.6534 0 255 0
24.8982 3.2942 0.6631 0 255 0
24.8982 3.2942 0.6727 0 255 0
24.8982 3.2942 0.6824 0 255 0
24.8982 3.2942 0.6921 0 255 0
24.8982 3.2942 0.7018 0 255 0
24.8982 3.2942 0.7114 0 255 0
24.8982 3.2942 0.7211 0 255 0
24.8982 3.2942 0.7308 0 255 0
24.8982 3.2942 0.7405 0 255 0
24.8982 3.2942 0.7502 0 255 0
24.8982 3.2942 0.7598 0 255 0
24.8982 3.2942 0.7695 0 255 0
24.8982 3.2942 0.7792 0 255 0
24.8982 3.2942 0.7889 0 255 0
24.8982 3.2942 0.7986 0 255 0
24.8982 3.2942 0.8082 0 255 0
24.8982 3.2942 0.8179 0 255 0
24.8982 3.2942 0.8276 0 255 0
24.8982 3.2942 0.8373 0 255 0
24.8982 3.2942 0.8470 0 255 0
24.8982 3.2942 0.8566 0 255 0
24.8982 3.2942 0.8663 0 255 0
24.8982 3.2942 0.8760 0 255 0
24.8982 3.2942 0.8857 0 255 0
24.8982 3.2942 0.8953 0 255 0
24.8982 3.2942 0.9050 0 255 0
24.8982 3.2942 0.9147 0 255 0
24.8982 3.2942 0.9244 0 255 0
24.8982 3.2942 0.9341 0 255 0
24.8982 3.2942 0.9437 0 255 0
24.8982 3.2942 0.9534 0 255 0
24.8982 3.2942 0.9631 0 255 0
24.8982 3.2942 0.9728 0 255 0
24.8982 3.2942 0.9825 0 255 0
24.8982 3.2942 0.9921 0 255 0
24.8982 3.2942 1.0018 0 255 0
24.8982 3.2942 1.0115 0 255 0
24.8982 3.2942 1.0212 0 255 0
24.8982 3.2942 1.0308 0 255 0
24.8982 3.2942 1.0405 0 255 0
24.8982 3.2942 1.0502 0 255 0
24.8982 3.2942 1.0599 0 255 0
24.8982 3.2942 1.0696 0 255 0
24.8982 3.2942 1.0792 0 255 0
24.8982 3.2942 1.0889 0 255 0
24.8982 3.2942 1.0986 0 255 0
24.8982 3.2942 1.1083 0 255 0
24.8982 3.2942 1.1180 0 255 0
24.8982 3.2942 1.1276 0 255 0
24.8982 3.2942 1.1373 0 255 0
24.8982 3.2942 1.1470 0 255 0
24.8982 3.2942 1.1567 0 255 0
24.8982 3.2942 1.1664 0 255 0
24.8982 3.2942 1.1760 0 255 0
24.8982 3.2942 1.1857 0 255 0
24.8982 3.2942 1.1954 0 255 0
24.8982 3.2942 1.2051 0 255 0
24.8982 3.2942 1.2147 0 255 0
24.8982 3.2942 1.2244 0 255 0
24.8982 3.2942 1.2341 0 255 0
24.8982 3.2942 1.2438 0 255 0
24.8982 3.2942 1.2535 0 255 0
24.8982 3.2942 1.2631 0 255 0
24.8982 3.2942 1.2728 0 255 0
24.8982 3.2942 1.2825 0 255 0
24.8982 3.2942 1.2922 0 255 0
24.8982 3.2942 1.3019 0 255 0
24.8982 3.2942 1.3115 0 255 0
24.8982 3.2942 1.3212 0 255 0
24.8982 3.2942 1.3309 0 255 0
24.8982 3.2942 1.3406 0 255 0
24.8982 3.2942 1.3502 0 255 0
24.8982 3.2942 1.3599 0 255 0
24.8982 3.2942 1.3696 0 255 0
24.8982 3.2942 1.3793 0 255 0
24.8982 3.2942 1.3890 0 255 0
24.8982 3.2942 1.3986 0 255 0
24.8982 3.2942 1.4083 0 255 0
24.8982 3.2942 1.4180 0 255 0
24.8982 3.2942 1.4277 0 255 0
24.8982 3.2942 1.4374 0 255 0
24.8982 3.2942 1.4470 0 255 0
24.8982 3.2942 1.4567 0 255 0
24.8982 3.2942 1.4664 0 255 0
24.8982 3.2942 1.4761 0 255 0
24.8982 3.2942 1.4858 0 255 0
24.8982 3.2942 1.4954 0 255 0
24.8982 3.2942 1.5051 0 255 0
24.8982 3.2942 1.5148 0 255 0
24.8982 3.2942 1.5245 0 255 0
24.8982 3.2942 1.5341 0 255 0
24.8982 3.2942 1.5438 0 255 0
24.8982 3.2942 1.5535 0 255 0
24.8982 3.2942 1.5632 0 255 0
24.8982 3.2942 1.5729 0 255 0
24.8982 3.2942 1.5825 0 255 0
24.8982 3.2942 1.5922 0 255 0
24.8982 3.2942 1.6019 0 255 0
24.8982 3.2942 1.6116 0 255 0
24.8982 3.2942 1.6213 0 255 0
24.8982 3.2942 1.6309 0 255 0
24.8982 3.2942 1.6406 0 255 0
24.8982 3.2942 1.6503 0 255 0
24.8982 3.2942 1.6600 0 255 0
24.8982 3.2942 1.6696 0 255 0
24.8982 3.2942 1.6793 0 255 0
24.8982 3.2942 1.6890 0 255 0
24.8982 3.2942 1.6987 0 255 0
24.8982 3.2942 1.7084 0 255 0
24.8982 3.2942 1.7180 0 255 0
24.8982 3.2942 1.7277 0 255 0
24.8982 3.2942 1.7374 0 255 0
24.8982 3.2942 1.7471 0 255 0
24.8982 3.2942 1.7568 0 255 0
24.8982 3.2942 1.7664 0 255 0
24.8982 3.2942 1.7761 0 255 0
24.8982 3.2942 1.7858 0 255 0
24.8982 3.2942 1.7955 0 255 0
24.8982 3.2942 1.8052 0 255 0
24.8982 3.2942 1.8148 0 255 0
24.8982 3.2942 1.8245 0 255 0
24.8982 3.2942 1.8342 0 255 0
24.8982 3.2942 1.8439 0 255 0
24.8982 3.2942 1.8535 0 255 0
24.8982 3.2942 1.8632 0 255 0
24.8982 3.2942 1.8729 0 255 0
24.8982 3.2942 1.8826 0 255 0
24.8982 3.2942 1.8923 0 255 0
24.8982 3.2942 1.9019 0 255 0
24.8982 3.2942 1.9116 0 255 0
24.8982 3.2942 1.9213 0 255 0
24.8982 3.2942 1.9310 0 255 0
24.8982 3.2942 1.9407 0 255 0
24.8982 3.2942 1.9503 0 255 0
24.8982 3.2942 1.9600 0 255 0
24.8982 3.2942 1.9697 0 255 0
24.8982 3.2942 1.9794 0 255 0
24.8982 3.2942 1.9890 0 255 0
24.8982 3.2942 1.9987 0 255 0
24.8982 3.2942 2.0084 0 255 0
24.8982 3.2942 2.0181 0 255 0
24.8982 3.2942 2.0278 0 255 0
24.8982 3.2942 2.0374 0 255 0
24.8982 3.2942 2.0471 0 255 0
26.3567 8.0538 0.4501 0 255 0
26.3567 8.0538 0.4598 0 255 0
26.3567 8.0538 0.4695 0 255 0
26.3567 8.0538 0.4792 0 255 0
26.3567 8.0538 0.4888 0 255 0
26.3567 8.0538 0.4985 0 255 0
26.3567 8.0538 0.5082 0 255 0
26.3567 8.0538 0.5179 0 255 0
26.3567 8.0538 0.5276 0 255 0
26.3567 8.0538 0.5372 0 255 0
26.3567 8.0538 0.5469 0 255 0
26.3567 8.0538 0.5566 0 255 0
26.3567 8.0538 0.5663 0 255 0
26.3567 8.0538 0.5759 0 255 0
26.3567 8.0538 0.5856 0 255 0
26.3567 8.0538 0.5953 0 255 0
26.3567 8.0538 0.6050 0 255 0
26.3567 8.0538 0.6147 0 255 0
26.3567 8.0538 0.6243 0 255 0
26.3567 8.0538 0.6340 0 255 0
26.3567 8.0538 0.6437 0 255 0
26.3567 8.0538 0.6534 0 255 0
26.3567 8.0538 0.6631 0 255 0
26.3567 8.0538 0.6727 0 255 0
26.3567 8.0538 0.6824 0 255 0
26.3567 8.0538 0.6921 0 255 0
26.3567 8.0538 0.7018 0 255 0
26.3567 8.0538 0.7114 0 255 0
26.3567 8.0538 0.7211 0 255 0
26.3567 8.0538 0.7308 0 255 0
26.3567 8.0538 0.7405 0 255 0
26.3567 8.0538 0.7502 0 255 0
26.3567 8.0538 0.7598 0 255 0
26.3567 8.0538 0.7695 0 255 0
26.3567 8.0538 0.7792 0 255 0
26.3567 8.0538 0.7889 0 255 0
26.3567 8.0538 0.7986 0 255 0
26.3567 8.0538 0.8082 0 255 0
26.3567 8.0538 0.8179 0 255 0
26.3567 8.0538 0.8276 0 255 0
26.3567 8.0538 0.8373 0 255 0
26.3567 8.0538 0.8470 0 255 0
26.3567 8.0538 0.8566 0 255 0
26.3567 8.0538 0.8663 0 255 0
26.3567 8.0538 0.8760 0 255 0
26.3567 8.0538 0.8857 0 255 0
26.3567 8.0538 0.8953 0 255 0
26.3567 8.0538 0.9050 0 255 0
26.3567 8.0538 0.9147 0 255 0
26.3567 8.0538 0.9244 0 255 0
26.3567 8.0538 0.9341 0 255 0
26.3567 8.0538 0.9437 0 255 0
26.3567 8.0538 0.9534 0 255 0
26.3567 8.0538 0.9631 0 255 0
26.3567 8.0538 0.9728 0 255 0
26.3567 8.0538 0.9825 0 255 0
26.3567 8.0538 0.9921 0 255 0
26.3567 8.0538 1.0018 0 255 0
26.3567 8.0538 1.0115 0 255 0
26.3567 8.0538 1.0212 0 255 0
26.3567 8.0538 1.0308 0 255 0
26.3567 8.0538 1.0405 0 255 0
26.3567 8.0538 1.0502 0 255 0
26.3567 8.0538 1.0599 0 255 0
26.3567 8.0538 1.0696 0 255 0
26.3567 8.0538 1.0792 0 255 0
26.3567 8.0538 1.0889 0 255 0
26.3567 8.0538 1.0986 0 255 0
26.3567 8.0538 1.1083 0 255 0
26.3567 8.0538 1.1180 0 255 0
26.3567 8.0538 1.1276 0 255 0
26.3567 8.0538 1.1373 0 255 0
26.3567 8.0538 1.1470 0 255 0
26.3567 8.0538 1.1567 0 255 0
26.3567 8.0538 1.1664 0 255 0
26.3567 8.0538 1.1760 0 255 0
26.3567 8.0538 1.1857 0 255 0
26.3567 8.0538 1.1954 0 255 0
26.3567 8.0538 1.2051 0 255 0
26.3567 8.0538 1.2147 0 255 0
26.3567 8.0538 1.2244 0 255 0
26.3567 8.0538 1.2341 0 255 0
26.3567 8.0538 1.2438 0 255 0
26.3567 8.0538 1.2535 0 255 0
26.3567 8.0538 1.2631 0 255 0
26.3567 8.0538 1.2728 0 255 0
26.3567 8.0538 1.2825 0 255 0
26.3567 8.0538 1.2922 0 255 0
26.3567 8.0538 1.3019 0 255 0
26.3567 8.0538 1.3115 0 255 0
26.3567 8.0538 1.3212 0 255 0
26.3567 8.0538 1.3309 0 255 0
26.3567 8.0538 1.3406 0 255 0
26.3567 8.0538 1.3502 0 255 0
26.3567 8.0538 1.3599 0 255 0
26.3567 8.0538 1.3696 0 255 0
26.3567 8.0538 1.3793 0 255 0
26.3567 8.0538 1.3890 0 255 0
26.3567 8.0538 1.3986 0 255 0
26.3567 8.0538 1.4083 0 255 0
26.3567 8.0538 1.4180 0 255 0
26.3567 8.0538 1.4277 0 255 0
26.3567 8.0538 1.4374 0 255 0
26.3567 8.0538 1.4470 0 255 0
26.3567 8.0538 1.4567 0 255 0
26.3567 8.0538 1.4664 0 255 0
26.3567 8.0538 1.4761 0 255 0
26.3567 8.0538 1.4858 0 255 0
26.3567 8.0538 1.4954 0 255 0
26.3567 8.0538 1.5051 0 255 0
26.3567 8.0538 1.5148 0 255 0
26.3567 8.0538 1.5245 0 255 0
26.3567 8.0538 1.5341 0 255 0
26.3567 8.0538 1.5438 0 255 0
26.3567 8.0538 1.5535 0 255 0
26.3567 8.0538 1.5632 0 255 0
26.3567 8.0538 1.5729 0 255 0
26.3567 8.0538 1.5825 0 255 0
26.3567 8.0538 1.5922 0 255 0
26.3567 8.0538 1.6019 0 255 0
26.3567 8.0538 1.6116 0 255 0
26.3567 8.0538 1.6213 0 255 0
26.3567 8.0538 1.6309 0 255 0
26.3567 8.0538 1.6406 0 255 0
26.3567 8.0538 1.6503 0 255 0
26.3567 8.0538 1.6600 0 255 0
26.3567 8.0538 1.6696 0 255 0
26.3567 8.0538 1.6793 0 255 0
26.3567 8.0538 1.6890 0 255 0
26.3567 8.0538 1.6987 0 255 0
26.3567 8.0538 1.7084 0 255 0
26.3567 8.0538 1.7180 0 255 0
26.3567 8.0538 1.7277 0 255 0
26.3567 8.0538 1.7374 0 255 0
26.3567 8.0538 1.7471 0 255 0
26.3567 8.0538 1.7568 0 255 0
26.3567 8.0538 1.7664 0 255 0
26.3567 8.0538 1.7761 0 255 0
26.3567 8.0538 1.7858 0 255 0
26.3567 8.0538 1.7955 0 255 0
26.3567 8.0538 1.8052 0 255 0
26.3567 8.0538 1.8148 0 255 0
26.3567 8.0538 1.8245 0 255 0
26.3567 8.0538 1.8342 0 255 0
26.3567 8.0538 1.8439 0 255 0
26.3567 8.0538 1.8535 0 255 0
26.3567 8.0538 1.8632 0 255 0
26.3567 8.0538 1.8729 0 255 0
26.3567 8.0538 1.8826 0 255 0
26.3567 8.0538 1.8923 0 255 0
26.3567 8.0538 1.9019 0 255 0
26.3567 8.0538 1.9116 0 255 0
26.3567 8.0538 1.9213 0 255 0
26.3567 8.0538 1.9310 0 255 0
26.3567 8.0538 1.9407 0 255 0
26.3567 8.0538 1.9503 0 255 0
26.3567 8.0538 1.9600 0 255 0
26.3567 8.0538 1.9697 0 255 0
26.3567 8.0538 1.9794 0 255 0
26.3567 8.0538 1.9890 0 255 0
26.3567 8.0538 1.9987 0 255 0
26.3567 8.0538 2.0084 0 255 0
26.3567 8.0538 2.0181 0 255 0
26.3567 8.0538 2.0278 0 255 0
26.3567 8.0538 2.0374 0 255 0
26.3567 8.0538 2.0471 0 255 0
24.3287 8.7406 1.1536 100 150 255
24.3216 8.7118 1.1536 100 150 255
24.3144 8.6830 1.1536 100 150 255
24.3072 8.6542 1.1536 100 150 255
24.3001 8.6253 1.1536 100 150 255
24.2929 8.5965 1.1536 100 150 255
24.2857 8.5677 1.1536 100 150 255
24.2786 8.5388 1.1536 100 150 255
24.2714 8.5100 1.1536 100 150 255
24.2642 8.4812 1.1536 100 150 255
24.2571 8.4524 1.1536 100 150 255
24.2499 8.4235 1.1536 100 150 255
24.2428 8.3947 1.1536 100 150 255
24.2356 8.3659 1.1536 100 150 255
24.2284 8.3371 1.1536 100 150 255
24.2213 8.3082 1.1536 100 150 255
24.2141 8.2794 1.1536 100 150 255
24.2069 8.2506 1.1536 100 150 255
24.1998 8.2217 1.1536 100 150 255
24.1926 8.1929 1.1536 100 150 255
24.1854 8.1641 1.1536 100 150 255
24.1783 8.1353 1.1536 100 150 255
24.1711 8.1064 1.1536 100 150 255
24.1639 8.0776 1.1536 100 150 255
24.1568 8.0488 1.1536 100 150 255
24.1496 8.0200 1.1536 100 150 255
24.1425 7.9911 1.1536 100 150 255
24.1353 7.9623 1.1536 100 150 255
24.1281 7.9335 1.1536 100 150 255
24.1210 7.9046 1.1536 100 150 255
24.1138 7.8758 1.1536 100 150 255
24.1066 7.8470 1.1536 100 150 255
24.0995 7.8182 1.1536 100 150 255
24.0923 7.7893 1.1536 100 150 255
24.0851 7.7605 1.1536 100 150 255
24.0780 7.7317 1.1536 100 150 255
24.0708 7.7029 1.1536 100 150 255
24.0636 7.6740 1.1536 100 150 255
24.0565 7.6452 1.1536 100 150 255
24.0493 7.6164 1.1536 100 150 255
24.0422 7.5875 1.1536 100 150 255
24.0350 7.5587 1.1536 100 150 255
24.0278 7.5299 1.1536 100 150 255
24.0207 7.5011 1.1536 100 150 255
24.0135 7.4722 1.1536 100 150 255
24.0063 7.4434 1.1536 100 150 255
23.9992 7.4146 1.1536 100 150 255
23.9920 7.3858 1.1536 100 150 255
23.9848 7.3569 1.1536 100 150 255
23.9777 7.3281 1.1536 100 150 255
23.9705 7.2993 1.1536 100 150 255
23.9634 7.2704 1.1536 100 150 255
23.9562 7.2416 1.1536 100 150 255
23.9490 7.2128 1.1536 100 150 255
23.9419 7.1840 1.1536 100 150 255
23.9347 7.1551 1.1536 100 150 255
23.9275 7.1263 1.1536 100 150 255
23.9204 7.0975 1.1536 100 150 255
23.9132 7.0687 1.1536 100 150 255
23.9060 7.0398 1.1536 100 150 255
23.8989 7.0110 1.1536 100 150 255
23.8917 6.9822 1.1536 100 150 255
23.8845 6.9533 1.1536 100 150 255
23.8774 6.9245 1.1536 100 150 255
23.8702 6.8957 1.1536 100 150 255
23.8631 6.8669 1.1536 100 150 255
23.8559 6.8380 1.1536 100 150 255
23.8487 6.8092 1.1536 100 150 255
23.8416 6.7804 1.1536 100 150 255
23.8344 6.7516 1.1536 100 150 255
23.8272 6.7227 1.1536 100 150 255
23.8201 6.6939 1.1536 100 150 255
23.8129 6.6651 1.1536 100 150 255
23.8057 6.6362 1.1536 100 150 255
23.7986 6.6074 1.1536 100 150 255
23.7914 6.5786 1.1536 100 150 255
23.7842 6.5498 1.1536 100 150 255
23.7771 6.5209 1.1536 100 150 255
23.7699 6.4921 1.1536 100 150 255
23.7628 6.4633 1.1536 100 150 255
23.7556 6.4345 1.1536 100 150 255
23.7484 6.4056 1.1536 100 150 255
23.7413 6.3768 1.1536 100 150 255
23.7341 6.3480 1.1536 100 150 255
23.7269 6.3191 1.1536 100 150 255
23.7198 6.2903 1.1536 100 150 255
23.7126 6.2615 1.1536 100 150 255
23.7054 6.2327 1.1536 100 150 255
23.6983 6.2038 1.1536 100 150 255
23.6911 6.1750 1.1536 100 150 255
23.6840 6.1462 1.1536 100 150 255
23.6768 6.1174 1.1536 100 150 255
23.6696 6.0885 1.1536 100 150 255
23.6625 6.0597 1.1536 100 150 255
23.6553 6.0309 1.1536 100 150 255
23.6481 6.0021 1.1536 100 150 255
23.6410 5.9732 1.1536 100 150 255
23.6338 5.9444 1.1536 100 150 255
23.6266 5.9156 1.1536 100 150 255
23.6195 5.8867 1.1536 100 150 255
23.6123 5.8579 1.1536 100 150 255
23.6051 5.8291 1.1536 100 150 255
23.5980 5.8003 1.1536 100 150 255
23.5908 5.7714 1.1536 100 150 255
23.5837 5.7426 1.1536 100 150 255
23.5765 5.7138 1.1536 100 150 255
23.5693 5.6850 1.1536 100 150 255
23.5622 5.6561 1.1536 100 150 255
23.5550 5.6273 1.1536 100 150 255
23.5478 5.5985 1.1536 100 150 255
23.5407 5.5696 1.1536 100 150 255
23.5335 5.5408 1.1536 100 150 255
23.5263 5.5120 1.1536 100 150 255
23.5192 5.4832 1.1536 100 150 255
23.5120 5.4543 1.1536 100 150 255
23.5048 5.4255 1.1536 100 150 255
23.4977 5.3967 1.1536 100 150 255
23.4905 5.3679 1.1536 100 150 255
23.4834 5.3390 1.1536 100 150 255
23.4762 5.3102 1.1536 100 150 255
23.4690 5.2814 1.1536 100 150 255
23.4619 5.2525 1.1536 100 150 255
23.4547 5.2237 1.1536 100 150 255
23.4475 5.1949 1.1536 100 150 255
23.4404 5.1661 1.1536 100 150 255
23.4332 5.1372 1.1536 100 150 255
23.4260 5.1084 1.1536 100 150 255
23.4189 5.0796 1.1536 100 150 255
23.4117 5.0508 1.1536 100 150 255
23.4046 5.0219 1.1536 100 150 255
23.3974 4.9931 1.1536 100 150 255
23.3902 4.9643 1.1536 100 150 255
23.3831 4.9354 1.1536 100 150 255
23.3759 4.9066 1.1536 100 150 255
23.3687 4.8778 1.1536 100 150 255
23.3616 4.8490 1.1536 100 150 255
23.3544 4.8201 1.1536 100 150 255
23.3472 4.7913 1.1536 100 150 255
23.3401 4.7625 1.1536 100 150 255
23.3329 4.7337 1.1536 100 150 255
23.3257 4.7048 1.1536 100 150 255
23.3186 4.6760 1.1536 100 150 255
23.3114 4.6472 1.1536 100 150 255
23.3043 4.6183 1.1536 100 150 255
23.2971 4.5895 1.1536 100 150 255
23.2899 4.5607 1.1536 100 150 255
23.2828 4.5319 1.1536 100 150 255
23.2756 4.5030 1.1536 100 150 255
23.2684 4.4742 1.1536 100 150 255
23.2613 4.4454 1.1536 100 150 255
23.2541 4.4166 1.1536 100 150 255
23.2469 4.3877 1.1536 100 150 255
23.2398 4.3589 1.1536 100 150 255
23.2326 4.3301 1.1536 100 150 255
23.2255 4.3012 1.1536 100 150 255
23.2183 4.2724 1.1536 100 150 255
23.2111 4.2436 1.1536 100 150 255
23.2040 4.2148 1.1536 100 150 255
23.1968 4.1859 1.1536 100 150 255
23.1896 4.1571 1.1536 100 150 255
23.1825 4.1283 1.1536 100 150 255
23.1753 4.0995 1.1536 100 150 255
23.1681 4.0706 1.1536 100 150 255
23.1610 4.0418 1.1536 100 150 255
23.1538 4.0130 1.1536 100 150 255
23.1466 3.9842 1.1536 100 150 255
23.1466 3.9842 1.1536 100 150 255
23.1588 3.9811 1.1536 100 150 255
23.1709 3.9781 1.1536 100 150 255
23.1830 3.9751 1.1536 100 150 255
23.1951 3.9721 1.1536 100 150 255
23.2072 3.9691 1.1536 100 150 255
23.2193 3.9661 1.1536 100 150 255
23.2315 3.9631 1.1536 100 150 255
23.2436 3.9601 1.1536 100 150 255
23.2557 3.9570 1.1536 100 150 255
23.2678 3.9540 1.1536 100 150 255
23.2799 3.9510 1.1536 100 150 255
23.2920 3.9480 1.1536 100 150 255
23.3042 3.9450 1.1536 100 150 255
23.3163 3.9420 1.1536 100 150 255
23.3284 3.9390 1.1536 100 150 255
23.3405 3.9360 1.1536 100 150 255
23.3526 3.9330 1.1536 100 150 255
23.3647 3.9299 1.1536 100 150 255
23.3769 3.9269 1.1536 100 150 255
23.3890 3.9239 1.1536 100 150 255
23.4011 3.9209 1.1536 100 150 255
23.4132 3.9179 1.1536 100 150 255
23.4253 3.9149 1.1536 100 150 255
23.4374 3.9119 1.1536 100 150 255
23.4496 3.9089 1.1536 100 150 255
23.4617 3.9059 1.1536 100 150 255
23.4738 3.9028 1.1536 100 150 255
23.4859 3.8998 1.1536 100 150 255
23.4980 3.8968 1.1536 100 150 255
23.5101 3.8938 1.1536 100 150 255
23.5223 3.8908 1.1536 100 150 255
23.5344 3.8878 1.1536 100 150 255
23.5465 3.8848 1.1536 100 150 255
23.5586 3.8818 1.1536 100 150 255
23.5707 3.8788 1.1536 100 150 255
23.5828 3.8757 1.1536 100 150 255
23.5950 3.8727 1.1536 100 150 255
23.6071 3.8697 1.1536 100 150 255
23.6192 3.8667 1.1536 100 150 255
23.6313 3.8637 1.1536 100 150 255
23.6434 3.8607 1.1536 100 150 255
23.6555 3.8577 1.1536 100 150 255
23.6677 3.8547 1.1536 100 150 255
23.6798 3.8517 1.1536 100 150 255
23.6919 3.8486 1.1536 100 150 255
23.7040 3.8456 1.1536 100 150 255
23.7161 3.8426 1.1536 100 150 255
23.7282 3.8396 1.1536 100 150 255
23.7404 3.8366 1.1536 100 150 255
23.7525 3.8336 1.1536 100 150 255
23.7646 3.8306 1.1536 100 150 255
23.7767 3.8276 1.1536 100 150 255
23.7888 3.8246 1.1536 100 150 255
23.8009 3.8215 1.1536 100 150 255
23.8131 3.8185 1.1536 100 150 255
23.8252 3.8155 1.1536 100 150 255
23.8373 3.8125 1.1536 100 150 255
23.8494 3.8095 1.1536 100 150 255
23.8615 3.8065 1.1536 100 150 255
23.8736 3.8035 1.1536 100 150 255
23.8858 3.8005 1.1536 100 150 255
23.8979 3.7975 1.1536 100 150 255
23.9100 3.7944 1.1536 100 150 255
23.9221 3.7914 1.1536 100 150 255
23.9342 3.7884 1.1536 100 150 255
23.9463 3.7854 1.1536 100 150 255
23.9585 3.7824 1.1536 100 150 255
23.9706 3.7794 1.1536 100 150 255
23.9827 3.7764 1.1536 100 150 255
23.9948 3.7734 1.1536 100 150 255
24.0069 3.7704 1.1536 100 150 255
24.0190 3.7673 1.1536 100 150 255
24.0312 3.7643 1.1536 100 150 255
24.0433 3.7613 1.1536 100 150 255
24.0554 3.7583 1.1536 100 150 255
24.0675 3.7553 1.1536 100 150 255
24.0796 3.7523 1.1536 100 150 255
24.0917 3.7493 1.1536 100 150 255
24.1038 3.7463 1.1536 100 150 255
24.1160 3.7433 1.1536 100 150 255
24.1281 3.7402 1.1536 100 150 255
24.1402 3.7372 1.1536 100 150 255
24.1523 3.7342 1.1536 100 150 255
24.1644 3.7312 1.1536 100 150 255
24.1765 3.7282 1.1536 100 150 255
24.1887 3.7252 1.1536 100 150 255
24.2008 3.7222 1.1536 100 150 255
24.2129 3.7192 1.1536 100 150 255
24.2250 3.7162 1.1536 100 150 255
24.2371 3.7131 1.1536 100 150 255
24.2492 3.7101 1.1536 100 150 255
24.2614 3.7071 1.1536 100 150 255
24.2735 3.7041 1.1536 100 150 255
24.2856 3.7011 1.1536 100 150 255
24.2977 3.6981 1.1536 100 150 255
24.3098 3.6951 1.1536 100 150 255
24.3219 3.6921 1.1536 100 150 255
24.3341 3.6891 1.1536 100 150 255
24.3462 3.6860 1.1536 100 150 255
24.3583 3.6830 1.1536 100 150 255
24.3704 3.6800 1.1536 100 150 255
24.3825 3.6770 1.1536 100 150 255
24.3946 3.6740 1.1536 100 150 255
24.4068 3.6710 1.1536 100 150 255
24.4189 3.6680 1.1536 100 150 255
24.4310 3.6650 1.1536 100 150 255
24.4431 3.6620 1.1536 100 150 255
24.4552 3.6589 1.1536 100 150 255
24.4673 3.6559 1.1536 100 150 255
24.4795 3.6529 1.1536 100 150 255
24.4916 3.6499 1.1536 100 150 255
24.5037 3.6469 1.1536 100 150 255
24.5158 3.6439 1.1536 100 150 255
24.5279 3.6409 1.1536 100 150 255
24.5400 3.6379 1.1536 100 150 255
24.5522 3.6349 1.1536 100 150 255
24.5643 3.6318 1.1536 100 150 255
24.5764 3.6288 1.1536 100 150 255
24.5885 3.6258 1.1536 100 150 255
24.6006 3.6228 1.1536 100 150 255
24.6127 3.6198 1.1536 100 150 255
24.6249 3.6168 1.1536 100 150 255
24.6370 3.6138 1.1536 100 150 255
24.6491 3.6108 1.1536 100 150 255
24.6612 3.6078 1.1536 100 150 255
24.6733 3.6047 1.1536 100 150 255
24.6854 3.6017 1.1536 100 150 255
24.6976 3.5987 1.1536 100 150 255
24.7097 3.5957 1.1536 100 150 255
24.7218 3.5927 1.1536 100 150 255
24.7339 3.5897 1.1536 100 150 255
24.7460 3.5867 1.1536 100 150 255
24.7581 3.5837 1.1536 100 150 255
24.7703 3.5807 1.1536 100 150 255
24.7824 3.5776 1.1536 100 150 255
24.7945 3.5746 1.1536 100 150 255
24.8066 3.5716 1.1536 100 150 255
24.8187 3.5686 1.1536 100 150 255
24.8308 3.5656 1.1536 100 150 255
24.8430 3.5626 1.1536 100 150 255
24.8551 3.5596 1.1536 100 150 255
24.8672 3.5566 1.1536 100 150 255
24.8793 3.5536 1.1536 100 150 255
24.8914 3.5505 1.1536 100 150 255
24.9035 3.5475 1.1536 100 150 255
24.9157 3.5445 1.1536 100 150 255
24.9278 3.5415 1.1536 100 150 255
24.9399 3.5385 1.1536 100 150 255
24.9520 3.5355 1.1536 100 150 255
24.9641 3.5325 1.1536 100 150 255
24.9762 3.5295 1.1536 100 150 255
24.9884 3.5265 1.1536 100 150 255
25.0005 3.5234 1.1536 100 150 255
25.0126 3.5204 1.1536 100 150 255
25.0247 3.5174 1.1536 100 150 255
25.0368 3.5144 1.1536 100 150 255
25.0489 3.5114 1.1536 100 150 255
25.0611 3.5084 1.1536 100 150 255
25.0732 3.5054 1.1536 100 150 255
25.0853 3.5024 1.1536 100 150 255
25.0974 3.4994 1.1536 100 150 255
25.1095 3.4963 1.1536 100 150 255
25.1216 3.4933 1.1536 100 150 255
25.1338 3.4903 1.1536 100 150 255
25.1459 3.4873 1.1536 100 150 255
25.1459 3.4873 1.1536 100 150 255
25.1530 3.5161 1.1536 100 150 255
25.1602 3.5450 1.1536 100 150 255
25.1674 3.5738 1.1536 100 150 255
25.1745 3.6026 1.1536 100 150 255
25.1817 3.6314 1.1536 100 150 255
25.1889 3.6603 1.1536 100 150 255
25.1960 3.6891 1.1536 100 150 255
25.2032 3.7179 1.1536 100 150 255
25.2103 3.7468 1.1536 100 150 255
25.2175 3.7756 1.1536 100 150 255
25.2247 3.8044 1.1536 100 150 255
25.2318 3.8332 1.1536 100 150 255
25.2390 3.8621 1.1536 100 150 255
25.2462 3.8909 1.1536 100 150 255
25.2533 3.9197 1.1536 100 150 255
25.2605 3.9485 1.1536 100 150 255
25.2677 3.9774 1.1536 100 150 255
25.2748 4.0062 1.1536 100 150 255
25.2820 4.0350 1.1536 100 150 255
25.2892 4.0638 1.1536 100 150 255
25.2963 4.0927 1.1536 100 150 255
25.3035 4.1215 1.1536 100 150 255
25.3106 4.1503 1.1536 100 150 255
25.3178 4.1792 1.1536 100 150 255
25.3250 4.2080 1.1536 100 150 255
25.3321 4.2368 1.1536 100 150 255
25.3393 4.2656 1.1536 100 150 255
25.3465 4.2945 1.1536 100 150 255
25.3536 4.3233 1.1536 100 150 255
25.3608 4.3521 1.1536 100 150 255
25.3680 4.3809 1.1536 100 150 255
25.3751 4.4098 1.1536 100 150 255
25.3823 4.4386 1.1536 100 150 255
25.3895 4.4674 1.1536 100 150 255
25.3966 4.4963 1.1536 100 150 255
25.4038 4.5251 1.1536 100 150 255
25.4109 4.5539 1.1536 100 150 255
25.4181 4.5827 1.1536 100 150 255
25.4253 4.6116 1.1536 100 150 255
25.4324 4.6404 1.1536 100 150 255
25.4396 4.6692 1.1536 100 150 255
25.4468 4.6980 1.1536 100 150 255
25.4539 4.7269 1.1536 100 150 255
25.4611 4.7557 1.1536 100 150 255
25.4683 4.7845 1.1536 100 150 255
25.4754 4.8134 1.1536 100 150 255
25.4826 4.8422 1.1536 100 150 255
25.4897 4.8710 1.1536 100 150 255
25.4969 4.8998 1.1536 100 150 255
25.5041 4.9287 1.1536 100 150 255
25.5112 4.9575 1.1536 100 150 255
25.5184 4.9863 1.1536 100 150 255
25.5256 5.0151 1.1536 100 150 255
25.5327 5.0440 1.1536 100 150 255
25.5399 5.0728 1.1536 100 150 255
25.5471 5.1016 1.1536 100 150 255
25.5542 5.1305 1.1536 100 150 255
25.5614 5.1593 1.1536 100 150 255
25.5686 5.1881 1.1536 100 150 255
25.5757 5.2169 1.1536 100 150 255
25.5829 5.2458 1.1536 100 150 255
25.5900 5.2746 1.1536 100 150 255
25.5972 5.3034 1.1536 100 150 255
25.6044 5.3322 1.1536 100 150 255
25.6115 5.3611 1.1536 100 150 255
25.6187 5.3899 1.1536 100 150 255
25.6259 5.4187 1.1536 100 150 255
25.6330 5.4476 1.1536 100 150 255
25.6402 5.4764 1.1536 100 150 255
25.6474 5.5052 1.1536 100 150 255
25.6545 5.5340 1.1536 100 150 255
25.6617 5.5629 1.1536 100 150 255
25.6688 5.5917 1.1536 100 150 255
25.6760 5.6205 1.1536 100 150 255
25.6832 5.6493 1.1536 100 150 255
25.6903 5.6782 1.1536 100 150 255
25.6975 5.7070 1.1536 100 150 255
25.7047 5.7358 1.1536 100 150 255
25.7118 5.7647 1.1536 100 150 255
25.7190 5.7935 1.1536 100 150 255
25.7262 5.8223 1.1536 100 150 255
25.7333 5.8511 1.1536 100 150 255
25.7405 5.8800 1.1536 100 150 255
25.7477 5.9088 1.1536 100 150 255
25.7548 5.9376 1.1536 100 150 255
25.7620 5.9664 1.1536 100 150 255
25.7691 5.9953 1.1536 100 150 255
25.7763 6.0241 1.1536 100 150 255
25.7835 6.0529 1.1536 100 150 255
25.7906 6.0817 1.1536 100 150 255
25.7978 6.1106 1.1536 100 150 255
25.8050 6.1394 1.1536 100 150 255
25.8121 6.1682 1.1536 100 150 255
25.8193 6.1971 1.1536 100 150 255
25.8265 6.2259 1.1536 100 150 255
25.8336 6.2547 1.1536 100 150 255
25.8408 6.2835 1.1536 100 150 255
25.8480 6.3124 1.1536 100 150 255
25.8551 6.3412 1.1536 100 150 255
25.8623 6.3700 1.1536 100 150 255
25.8694 6.3988 1.1536 100 150 255
25.8766 6.4277 1.1536 100 150 255
25.8838 6.4565 1.1536 100 150 255
25.8909 6.4853 1.1536 100 150 255
25.8981 6.5142 1.1536 100 150 255
25.9053 6.5430 1.1536 100 150 255
25.9124 6.5718 1.1536 100 150 255
25.9196 6.6006 1.1536 100 150 255
25.9268 6.6295 1.1536 100 150 255
25.9339 6.6583 1.1536 100 150 255
25.9411 6.6871 1.1536 100 150 255
25.9482 6.7159 1.1536 100 150 255
25.9554 6.7448 1.1536 100 150 255
25.9626 6.7736 1.1536 100 150 255
25.9697 6.8024 1.1536 100 150 255
25.9769 6.8313 1.1536 100 150 255
25.9841 6.8601 1.1536 100 150 255
25.9912 6.8889 1.1536 100 150 255
25.9984 6.9177 1.1536 100 150 255
26.0056 6.9466 1.1536 100 150 255
26.0127 6.9754 1.1536 100 150 255
26.0199 7.0042 1.1536 100 150 255
26.0271 7.0330 1.1536 100 150 255
26.0342 7.0619 1.1536 100 150 255
26.0414 7.0907 1.1536 100 150 255
26.0485 7.1195 1.1536 100 150 255
26.0557 7.1484 1.1536 100 150 255
26.0629 7.1772 1.1536 100 150 255
26.0700 7.2060 1.1536 100 150 255
26.0772 7.2348 1.1536 100 150 255
26.0844 7.2637 1.1536 100 150 255
26.0915 7.2925 1.1536 100 150 255
26.0987 7.3213 1.1536 100 150 255
26.1059 7.3501 1.1536 100 150 255
26.1130 7.3790 1.1536 100 150 255
26.1202 7.4078 1.1536 100 150 255
26.1274 7.4366 1.1536 100 150 255
26.1345 7.4655 1.1536 100 150 255
26.1417 7.4943 1.1536 100 150 255
26.1488 7.5231 1.1536 100 150 255
26.1560 7.5519 1.1536 100 150 255
26.1632 7.5808 1.1536 100 150 255
26.1703 7.6096 1.1536 100 150 255
26.1775 7.6384 1.1536 100 150 255
26.1847 7.6672 1.1536 100 150 255
26.1918 7.6961 1.1536 100 150 255
26.1990 7.7249 1.1536 100 150 255
26.2062 7.7537 1.1536 100 150 255
26.2133 7.7826 1.1536 100 150 255
26.2205 7.8114 1.1536 100 150 255
26.2276 7.8402 1.1536 100 150 255
26.2348 7.8690 1.1536 100 150 255
26.2420 7.8979 1.1536 100 150 255
26.2491 7.9267 1.1536 100 150 255
26.2563 7.9555 1.1536 100 150 255
26.2635 7.9843 1.1536 100 150 255
26.2706 8.0132 1.1536 100 150 255
26.2778 8.0420 1.1536 100 150 255
26.2850 8.0708 1.1536 100 150 255
26.2921 8.0997 1.1536 100 150 255
26.2993 8.1285 1.1536 100 150 255
26.3065 8.1573 1.1536 100 150 255
26.3136 8.1861 1.1536 100 150 255
26.3208 8.2150 1.1536 100 150 255
26.3279 8.2438 1.1536 100 150 255
26.3279 8.2438 1.1536 100 150 255
26.3158 8.2468 1.1536 100 150 255
26.3037 8.2498 1.1536 100 150 255
26.2916 8.2528 1.1536 100 150 255
26.2795 8.2558 1.1536 100 150 255
26.2674 8.2588 1.1536 100 150 255
26.2552 8.2619 1.1536 100 150 255
26.2431 8.2649 1.1536 100 150 255
26.2310 8.2679 1.1536 100 150 255
26.2189 8.2709 1.1536 100 150 255
26.2068 8.2739 1.1536 100 150 255
26.1947 8.2769 1.1536 100 150 255
26.1825 8.2799 1.1536 100 150 255
26.1704 8.2829 1.1536 100 150 255
26.1583 8.2859 1.1536 100 150 255
26.1462 8.2890 1.1536 100 150 255
26.1341 8.2920 1.1536 100 150 255
26.1220 8.2950 1.1536 100 150 255
26.1098 8.2980 1.1536 100 150 255
26.0977 8.3010 1.1536 100 150 255
26.0856 8.3040 1.1536 100 150 255
26.0735 8.3070 1.1536 100 150 255
26.0614 8.3100 1.1536 100 150 255
26.0493 8.3130 1.1536 100 150 255
26.0371 8.3161 1.1536 100 150 255
26.0250 8.3191 1.1536 100 150 255
26.0129 8.3221 1.1536 100 150 255
26.0008 8.3251 1.1536 100 150 255
25.9887 8.3281 1.1536 100 150 255
25.9766 8.3311 1.1536 100 150 255
25.9645 8.3341 1.1536 100 150 255
25.9523 8.3371 1.1536 100 150 255
25.9402 8.3401 1.1536 100 150 255
25.9281 8.3432 1.1536 100 150 255
25.9160 8.3462 1.1536 100 150 255
25.9039 8.3492 1.1536 100 150 255
25.8918 8.3522 1.1536 100 150 255
25.8796 8.3552 1.1536 100 150 255
25.8675 8.3582 1.1536 100 150 255
25.8554 8.3612 1.1536 100 150 255
25.8433 8.3642 1.1536 100 150 255
25.8312 8.3672 1.1536 100 150 255
25.8191 8.3703 1.1536 100 150 255
25.8069 8.3733 1.1536 100 150 255
25.7948 8.3763 1.1536 100 150 255
25.7827 8.3793 1.1536 100 150 255
25.7706 8.3823 1.1536 100 150 255
25.7585 8.3853 1.1536 100 150 255
25.7464 8.3883 1.1536 100 150 255
25.7342 8.3913 1.1536 100 150 255
25.7221 8.3943 1.1536 100 150 255
25.7100 8.3974 1.1536 100 150 255
25.6979 8.4004 1.1536 100 150 255
25.6858 8.4034 1.1536 100 150 255
25.6737 8.4064 1.1536 100 150 255
25.6615 8.4094 1.1536 100 150 255
25.6494 8.4124 1.1536 100 150 255
25.6373 8.4154 1.1536 100 150 255
25.6252 8.4184 1.1536 100 150 255
25.6131 8.4214 1.1536 100 150 255
25.6010 8.4245 1.1536 100 150 255
25.5888 8.4275 1.1536 100 150 255
25.5767 8.4305 1.1536 100 150 255
25.5646 8.4335 1.1536 100 150 255
25.5525 8.4365 1.1536 100 150 255
25.5404 8.4395 1.1536 100 150 255
25.5283 8.4425 1.1536 100 150 255
25.5161 8.4455 1.1536 100 150 255
25.5040 8.4485 1.1536 100 150 255
25.4919 8.4516 1.1536 100 150 255
25.4798 8.4546 1.1536 100 150 255
25.4677 8.4576 1.1536 100 150 255
25.4556 8.4606 1.1536 100 150 255
25.4434 8.4636 1.1536 100 150 255
25.4313 8.4666 1.1536 100 150 255
25.4192 8.4696 1.1536 100 150 255
25.4071 8.4726 1.1536 100 150 255
25.3950 8.4756 1.1536 100 150 255
25.3829 8.4787 1.1536 100 150 255
25.3707 8.4817 1.1536 100 150 255
25.3586 8.4847 1.1536 100 150 255
25.3465 8.4877 1.1536 100 150 255
25.3344 8.4907 1.1536 100 150 255
25.3223 8.4937 1.1536 100 150 255
25.3102 8.4967 1.1536 100 150 255
25.2980 8.4997 1.1536 100 150 255
25.2859 8.5027 1.1536 100 150 255
25.2738 8.5058 1.1536 100 150 255
25.2617 8.5088 1.1536 100 150 255
25.2496 8.5118 1.1536 100 150 255
25.2375 8.5148 1.1536 100 150 255
25.2253 8.5178 1.1536 100 150 255
25.2132 8.5208 1.1536 100 150 255
25.2011 8.5238 1.1536 100 150 255
25.1890 8.5268 1.1536 100 150 255
25.1769 8.5298 1.1536 100 150 255
25.1648 8.5329 1.1536 100 150 255
25.1526 8.5359 1.1536 100 150 255
25.1405 8.5389 1.1536 100 150 255
25.1284 8.5419 1.1536 100 150 255
25.1163 8.5449 1.1536 100 150 255
25.1042 8.5479 1.1536 100 150 255
25.0921 8.5509 1.1536 100 150 255
25.0799 8.5539 1.1536 100 150 255
25.0678 8.5569 1.1536 100 150 255
25.0557 8.5600 1.1536 100 150 255
25.0436 8.5630 1.1536 100 150 255
25.0315 8.5660 1.1536 100 150 255
25.0194 8.5690 1.1536 100 150 255
25.0072 8.5720 1.1536 100 150 255
24.9951 8.5750 1.1536 100 150 255
24.9830 8.5780 1.1536 100 150 255
24.9709 8.5810 1.1536 100 150 255
24.9588 8.5840 1.1536 100 150 255
24.9467 8.5871 1.1536 100 150 255
24.9345 8.5901 1.1536 100 150 255
24.9224 8.5931 1.1536 100 150 255
24.9103 8.5961 1.1536 100 150 255
24.8982 8.5991 1.1536 100 150 255
24.8861 8.6021 1.1536 100 150 255
24.8740 8.6051 1.1536 100 150 255
24.8618 8.6081 1.1536 100 150 255
24.8497 8.6111 1.1536 100 150 255
24.8376 8.6142 1.1536 100 150 255
24.8255 8.6172 1.1536 100 150 255
24.8134 8.6202 1.1536 100 150 255
24.8013 8.6232 1.1536 100 150 255
24.7891 8.6262 1.1536 100 150 255
24.7770 8.6292 1.1536 100 150 255
24.7649 8.6322 1.1536 100 150 255
24.7528 8.6352 1.1536 100 150 255
24.7407 8.6383 1.1536 100 150 255
24.7286 8.6413 1.1536 100 150 255
24.7164 8.6443 1.1536 100 150 255
24.7043 8.6473 1.1536 100 150 255
24.6922 8.6503 1.1536 100 150 255
24.6801 8.6533 1.1536 100 150 255
24.6680 8.6563 1.1536 100 150 255
24.6559 8.6593 1.1536 100 150 255
24.6437 8.6623 1.1536 100 150 255
24.6316 8.6654 1.1536 100 150 255
24.6195 8.6684 1.1536 100 150 255
24.6074 8.6714 1.1536 100 150 255
24.5953 8.6744 1.1536 100 150 255
24.5832 8.6774 1.1536 100 150 255
24.5711 8.6804 1.1536 100 150 255
24.5589 8.6834 1.1536 100 150 255
24.5468 8.6864 1.1536 100 150 255
24.5347 8.6894 1.1536 100 150 255
24.5226 8.6925 1.1536 100 150 255
24.5105 8.6955 1.1536 100 150 255
24.4984 8.6985 1.1536 100 150 255
24.4862 8.7015 1.1536 100 150 255
24.4741 8.7045 1.1536 100 150 255
24.4620 8.7075 1.1536 100 150 255
24.4499 8.7105 1.1536 100 150 255
24.4378 8.7135 1.1536 100 150 255
24.4257 8.7165 1.1536 100 150 255
24.4135 8.7196 1.1536 100 150 255
24.4014 8.7226 1.1536 100 150 255
24.3893 8.7256 1.1536 100 150 255
24.3772 8.7286 1.1536 100 150 255
24.3651 8.7316 1.1536 100 150 255
24.3530 8.7346 1.1536 100 150 255
24.3408 8.7376 1.1536 100 150 255
24.3287 8.7406 1.1536 100 150 255
24.3287 8.7406 2.6286 100 150 255
24.3216 8.7118 2.6286 100 150 255
24.3144 8.6830 2.6286 100 150 255
24.3072 8.6542 2.6286 100 150 255
24.3001 8.6253 2.6286 100 150 255
24.2929 8.5965 2.6286 100 150 255
24.2857 8.5677 2.6286 100 150 255
24.2786 8.5388 2.6286 100 150 255
24.2714 8.5100 2.6286 100 150 255
24.2642 8.4812 2.6286 100 150 255
24.2571 8.4524 2.6286 100 150 255
24.2499 8.4235 2.6286 100 150 255
24.2428 8.3947 2.6286 100 150 255
24.2356 8.3659 2.6286 100 150 255
24.2284 8.3371 2.6286 100 150 255
24.2213 8.3082 2.6286 100 150 255
24.2141 8.2794 2.6286 100 150 255
24.2069 8.2506 2.6286 100 150 255
24.1998 8.2217 2.6286 100 150 255
24.1926 8.1929 2.6286 100 150 255
24.1854 8.1641 2.6286 100 150 255
24.1783 8.1353 2.6286 100 150 255
24.1711 8.1064 2.6286 100 150 255
24.1639 8.0776 2.6286 100 150 255
24.1568 8.0488 2.6286 100 150 255
24.1496 8.0200 2.6286 100 150 255
24.1425 7.9911 2.6286 100 150 255
24.1353 7.9623 2.6286 100 150 255
24.1281 7.9335 2.6286 100 150 255
24.1210 7.9046 2.6286 100 150 255
24.1138 7.8758 2.6286 100 150 255
24.1066 7.8470 2.6286 100 150 255
24.0995 7.8182 2.6286 100 150 255
24.0923 7.7893 2.6286 100 150 255
24.0851 7.7605 2.6286 100 150 255
24.0780 7.7317 2.6286 100 150 255
24.0708 7.7029 2.6286 100 150 255
24.0636 7.6740 2.6286 100 150 255
24.0565 7.6452 2.6286 100 150 255
24.0493 7.6164 2.6286 100 150 255
24.0422 7.5875 2.6286 100 150 255
24.0350 7.5587 2.6286 100 150 255
24.0278 7.5299 2.6286 100 150 255
24.0207 7.5011 2.6286 100 150 255
24.0135 7.4722 2.6286 100 150 255
24.0063 7.4434 2.6286 100 150 255
23.9992 7.4146 2.6286 100 150 255
23.9920 7.3858 2.6286 100 150 255
23.9848 7.3569 2.6286 100 150 255
23.9777 7.3281 2.6286 100 150 255
23.9705 7.2993 2.6286 100 150 255
23.9634 7.2704 2.6286 100 150 255
23.9562 7.2416 2.6286 100 150 255
23.9490 7.2128 2.6286 100 150 255
23.9419 7.1840 2.6286 100 150 255
23.9347 7.1551 2.6286 100 150 255
23.9275 7.1263 2.6286 100 150 255
23.9204 7.0975 2.6286 100 150 255
23.9132 7.0687 2.6286 100 150 255
23.9060 7.0398 2.6286 100 150 255
23.8989 7.0110 2.6286 100 150 255
23.8917 6.9822 2.6286 100 150 255
23.8845 6.9533 2.6286 100 150 255
23.8774 6.9245 2.6286 100 150 255
23.8702 6.8957 2.6286 100 150 255
23.8631 6.8669 2.6286 100 150 255
23.8559 6.8380 2.6286 100 150 255
23.8487 6.8092 2.6286 100 150 255
23.8416 6.7804 2.6286 100 150 255
23.8344 6.7516 2.6286 100 150 255
23.8272 6.7227 2.6286 100 150 255
23.8201 6.6939 2.6286 100 150 255
23.8129 6.6651 2.6286 100 150 255
23.8057 6.6362 2.6286 100 150 255
23.7986 6.6074 2.6286 100 150 255
23.7914 6.5786 2.6286 100 150 255
23.7842 6.5498 2.6286 100 150 255
23.7771 6.5209 2.6286 100 150 255
23.7699 6.4921 2.6286 100 150 255
23.7628 6.4633 2.6286 100 150 255
23.7556 6.4345 2.6286 100 150 255
23.7484 6.4056 2.6286 100 150 255
23.7413 6.3768 2.6286 100 150 255
23.7341 6.3480 2.6286 100 150 255
23.7269 6.3191 2.6286 100 150 255
23.7198 6.2903 2.6286 100 150 255
23.7126 6.2615 2.6286 100 150 255
23.7054 6.2327 2.6286 100 150 255
23.6983 6.2038 2.6286 100 150 255
23.6911 6.1750 2.6286 100 150 255
23.6840 6.1462 2.6286 100 150 255
23.6768 6.1174 2.6286 100 150 255
23.6696 6.0885 2.6286 100 150 255
23.6625 6.0597 2.6286 100 150 255
23.6553 6.0309 2.6286 100 150 255
23.6481 6.0021 2.6286 100 150 255
23.6410 5.9732 2.6286 100 150 255
23.6338 5.9444 2.6286 100 150 255
23.6266 5.9156 2.6286 100 150 255
23.6195 5.8867 2.6286 100 150 255
23.6123 5.8579 2.6286 100 150 255
23.6051 5.8291 2.6286 100 150 255
23.5980 5.8003 2.6286 100 150 255
23.5908 5.7714 2.6286 100 150 255
23.5837 5.7426 2.6286 100 150 255
23.5765 5.7138 2.6286 100 150 255
23.5693 5.6850 2.6286 100 150 255
23.5622 5.6561 2.6286 100 150 255
23.5550 5.6273 2.6286 100 150 255
23.5478 5.5985 2.6286 100 150 255
23.5407 5.5696 2.6286 100 150 255
23.5335 5.5408 2.6286 100 150 255
23.5263 5.5120 2.6286 100 150 255
23.5192 5.4832 2.6286 100 150 255
23.5120 5.4543 2.6286 100 150 255
23.5048 5.4255 2.6286 100 150 255
23.4977 5.3967 2.6286 100 150 255
23.4905 5.3679 2.6286 100 150 255
23.4834 5.3390 2.6286 100 150 255
23.4762 5.3102 2.6286 100 150 255
23.4690 5.2814 2.6286 100 150 255
23.4619 5.2525 2.6286 100 150 255
23.4547 5.2237 2.6286 100 150 255
23.4475 5.1949 2.6286 100 150 255
23.4404 5.1661 2.6286 100 150 255
23.4332 5.1372 2.6286 100 150 255
23.4260 5.1084 2.6286 100 150 255
23.4189 5.0796 2.6286 100 150 255
23.4117 5.0508 2.6286 100 150 255
23.4046 5.0219 2.6286 100 150 255
23.3974 4.9931 2.6286 100 150 255
23.3902 4.9643 2.6286 100 150 255
23.3831 4.9354 2.6286 100 150 255
23.3759 4.9066 2.6286 100 150 255
23.3687 4.8778 2.6286 100 150 255
23.3616 4.8490 2.6286 100 150 255
23.3544 4.8201 2.6286 100 150 255
23.3472 4.7913 2.6286 100 150 255
23.3401 4.7625 2.6286 100 150 255
23.3329 4.7337 2.6286 100 150 255
23.3257 4.7048 2.6286 100 150 255
23.3186 4.6760 2.6286 100 150 255
23.3114 4.6472 2.6286 100 150 255
23.3043 4.6183 2.6286 100 150 255
23.2971 4.5895 2.6286 100 150 255
23.2899 4.5607 2.6286 100 150 255
23.2828 4.5319 2.6286 100 150 255
23.2756 4.5030 2.6286 100 150 255
23.2684 4.4742 2.6286 100 150 255
23.2613 4.4454 2.6286 100 150 255
23.2541 4.4166 2.6286 100 150 255
23.2469 4.3877 2.6286 100 150 255
23.2398 4.3589 2.6286 100 150 255
23.2326 4.3301 2.6286 100 150 255
23.2255 4.3012 2.6286 100 150 255
23.2183 4.2724 2.6286 100 150 255
