ply
format ascii 1.0
element vertex 1381
property float x
property float y
property float z
property uchar red
property uchar green
property uchar blue
end_header
-3.9552 17.8165 2.0080 0 206 209
-3.9552 17.8165 2.0138 0 206 209
-3.9552 17.8165 2.0196 0 206 209
-3.9552 17.8165 2.0255 0 206 209
-3.9552 17.8165 2.0313 0 206 209
-3.9552 17.8165 2.0371 0 206 209
-3.9552 17.8165 2.0430 0 206 209
-3.9552 17.8165 2.0488 0 206 209
-3.9552 17.8165 2.0547 0 206 209
-3.9552 17.8165 2.0605 0 206 209
-3.9552 17.8165 2.0663 0 206 209
-3.9552 17.8165 2.0722 0 206 209
-3.9552 17.8165 2.0780 0 206 209
-3.9552 17.8165 2.0839 0 206 209
-3.9552 17.8165 2.0897 0 206 209
-3.9552 17.8165 2.0955 0 206 209
-3.9552 17.8165 2.1014 0 206 209
-3.9552 17.8165 2.1072 0 206 209
-3.9552 17.8165 2.1130 0 206 209
-3.9552 17.8165 2.1189 0 206 209
-3.9552 17.8165 2.1247 0 206 209
-3.9552 17.8165 2.1306 0 206 209
-3.9552 17.8165 2.1364 0 206 209
-3.9552 17.8165 2.1422 0 206 209
-3.9552 17.8165 2.1481 0 206 209
-3.9552 17.8165 2.1539 0 206 209
-3.9552 17.8165 2.1597 0 206 209
-3.9552 17.8165 2.1656 0 206 209
-3.9552 17.8165 2.1714 0 206 209
-3.9552 17.8165 2.1773 0 206 209
-3.9552 17.8165 2.1831 0 206 209
-3.9552 17.8165 2.1889 0 206 209
-3.9552 17.8165 2.1948 0 206 209
-3.9552 17.8165 2.2006 0 206 209
-3.9552 17.8165 2.2064 0 206 209
-3.9552 17.8165 2.2123 0 206 209
-3.9552 17.8165 2.2181 0 206 209
-3.9552 17.8165 2.2240 0 206 209
-3.9552 17.8165 2.2298 0 206 209
-3.9552 17.8165 2.2356 0 206 209
-3.9552 17.8165 2.2415 0 206 209
-3.9552 17.8165 2.2473 0 206 209
-3.9552 17.8165 2.2532 0 206 209
-3.9552 17.8165 2.2590 0 206 209
-3.9552 17.8165 2.2648 0 206 209
-3.9552 17.8165 2.2707 0 206 209
-3.9552 17.8165 2.2765 0 206 209
-3.9552 17.8165 2.2823 0 206 209
-3.9552 17.8165 2.2882 0 206 209
-3.9552 17.8165 2.2940 0 206 209
-3.9552 17.8165 2.2999 0 206 209
-3.9552 17.8165 2.3057 0 206 209
-3.9552 17.8165 2.3115 0 206 209
-3.9552 17.8165 2.3174 0 206 209
-3.9552 17.8165 2.3232 0 206 209
-3.9552 17.8165 2.3290 0 206 209
-3.9552 17.8165 2.3349 0 206 209
-3.9552 17.8165 2.3407 0 206 209
-3.9552 17.8165 2.3466 0 206 209
-3.9552 17.8165 2.3524 0 206 209
-3.9552 17.8165 2.3582 0 206 209
-3.9552 17.8165 2.3641 0 206 209
-3.1945 17.8106 1.2023 0 206 209
-3.1945 17.8106 1.2081 0 206 209
-3.1945 17.8106 1.2140 0 206 209
-3.1945 17.8106 1.2198 0 206 209
-3.1945 17.8106 1.2257 0 206 209
-3.1945 17.8106 1.2315 0 206 209
-3.1945 17.8106 1.2373 0 206 209
-3.1945 17.8106 1.2432 0 206 209
-3.1945 17.8106 1.2490 0 206 209
-3.1945 17.8106 1.2549 0 206 209
-3.1945 17.8106 1.2607 0 206 209
-3.1945 17.8106 1.2665 0 206 209
-3.1945 17.8106 1.2724 0 206 209
-3.1945 17.8106 1.2782 0 206 209
-3.1945 17.8106 1.2840 0 206 209
-3.1945 17.8106 1.2899 0 206 209
-3.1945 17.8106 1.2957 0 206 209
-3.1945 17.8106 1.3016 0 206 209
-3.1945 17.8106 1.3074 0 206 209
-3.1945 17.8106 1.3132 0 206 209
-3.1945 17.8106 1.3191 0 206 209
-3.1945 17.8106 1.3249 0 206 209
-3.1945 17.8106 1.3307 0 206 209
-3.1945 17.8106 1.3366 0 206 209
-3.1945 17.8106 1.3424 0 206 209
-3.1945 17.8106 1.3483 0 206 209
-3.1945 17.8106 1.3541 0 206 209
-3.1945 17.8106 1.3599 0 206 209
-3.1945 17.8106 1.3658 0 206 209
-3.1945 17.8106 1.3716 0 206 209
-3.1945 17.8106 1.3774 0 206 209
-3.1945 17.8106 1.3833 0 206 209
-3.1945 17.8106 1.3891 0 206 209
-3.1945 17.8106 1.3950 0 206 209
-3.1945 17.8106 1.4008 0 206 209
-3.1945 17.8106 1.4066 0 206 209
-3.1945 17.8106 1.4125 0 206 209
-3.1945 17.8106 1.4183 0 206 209
-3.1945 17.8106 1.4242 0 206 209
-3.1945 17.8106 1.4300 0 206 209
-3.1945 17.8106 1.4358 0 206 209
-3.1945 17.8106 1.4417 0 206 209
-3.1945 17.8106 1.4475 0 206 209
-3.1945 17.8106 1.4533 0 206 209
-3.1945 17.8106 1.4592 0 206 209
-3.1945 17.8106 1.4650 0 206 209
-3.1945 17.8106 1.4709 0 206 209
-3.1945 17.8106 1.4767 0 206 209
-3.1945 17.8106 1.4825 0 206 209
-3.1945 17.8106 1.4884 0 206 209
-3.1945 17.8106 1.4942 0 206 209
-3.1945 17.8106 1.5000 0 206 209
-3.1945 17.8106 1.5059 0 206 209
-3.1945 17.8106 1.5117 0 206 209
-3.1945 17.8106 1.5176 0 206 209
-3.1945 17.8106 1.5234 0 206 209
-3.1945 17.8106 1.5292 0 206 209
-3.1945 17.8106 1.5351 0 206 209
-3.1945 17.8106 1.5409 0 206 209
-3.1945 17.8106 1.5468 0 206 209
-3.1945 17.8106 1.5526 0 206 209
-3.1945 17.8106 1.5584 0 206 209
-3.1945 17.8106 1.5643 0 206 209
-3.1945 17.8106 1.5701 0 206 209
-3.1945 17.8106 1.5759 0 206 209
-3.1945 17.8106 1.5818 0 206 209
-3.1945 17.8106 1.5876 0 206 209
-3.1945 17.8106 1.5935 0 206 209
-3.1945 17.8106 1.5993 0 206 209
-3.1945 17.8106 1.6051 0 206 209
-3.1945 17.8106 1.6110 0 206 209
-3.1945 17.8106 1.6168 0 206 209
-3.1945 17.8106 1.6226 0 206 209
-3.1945 17.8106 1.6285 0 206 209
-3.1945 17.8106 1.6343 0 206 209
-3.1945 17.8106 1.6402 0 206 209
-3.1945 17.8106 1.6460 0 206 209
-3.1945 17.8106 1.6518 0 206 209
-3.1945 17.8106 1.6577 0 206 209
-3.1945 17.8106 1.6635 0 206 209
-3.1945 17.8106 1.6694 0 206 209
-3.1945 17.8106 1.6752 0 206 209
-3.1945 17.8106 1.6810 0 206 209
-3.1945 17.8106 1.6869 0 206 209
-3.1945 17.8106 1.6927 0 206 209
-3.1945 17.8106 1.6985 0 206 209
-3.1945 17.8106 1.7044 0 206 209
-3.1945 17.8106 1.7102 0 206 209
-3.1945 17.8106 1.7161 0 206 209
-3.1945 17.8106 1.7219 0 206 209
-3.1945 17.8106 1.7277 0 206 209
-3.1945 17.8106 1.7336 0 206 209
-3.1945 17.8106 1.7394 0 206 209
-3.1945 17.8106 1.7452 0 206 209
-3.1945 17.8106 1.7511 0 206 209
-3.1945 17.8106 1.7569 0 206 209
-3.1945 17.8106 1.7628 0 206 209
-3.1945 17.8106 1.7686 0 206 209
-3.1945 17.8106 1.7744 0 206 209
-3.1945 17.8106 1.7803 0 206 209
-3.1945 17.8106 1.7861 0 206 209
-3.1945 17.8106 1.7919 0 206 209
-3.1945 17.8106 1.7978 0 206 209
-3.1945 17.8106 1.8036 0 206 209
-3.1945 17.8106 1.8095 0 206 209
-3.1945 17.8106 1.8153 0 206 209
-3.1945 17.8106 1.8211 0 206 209
-3.1945 17.8106 1.8270 0 206 209
-3.1945 17.8106 1.8328 0 206 209
-3.1945 17.8106 1.8387 0 206 209
-3.1945 17.8106 1.8445 0 206 209
-3.1945 17.8106 1.8503 0 206 209
-3.1945 17.8106 1.8562 0 206 209
-3.1945 17.8106 1.8620 0 206 209
-3.1945 17.8106 1.8678 0 206 209
-3.1945 17.8106 1.8737 0 206 209
-3.1945 17.8106 1.8795 0 206 209
-3.1945 17.8106 1.8854 0 206 209
-3.1945 17.8106 1.8912 0 206 209
-3.1945 17.8106 1.8970 0 206 209
-3.1945 17.8106 1.9029 0 206 209
-3.1945 17.8106 1.9087 0 206 209
-3.1945 17.8106 1.9145 0 206 209
-3.1945 17.8106 1.9204 0 206 209
-3.1945 17.8106 1.9262 0 206 209
-3.1945 17.8106 1.9321 0 206 209
-3.1945 17.8106 1.9379 0 206 209
-3.1945 17.8106 1.9437 0 206 209
-3.1945 17.8106 1.9496 0 206 209
-3.1945 17.8106 1.9554 0 206 209
-3.1945 17.8106 1.9613 0 206 209
-3.1945 17.8106 1.9671 0 206 209
-3.1945 17.8106 1.9729 0 206 209
-3.1945 17.8106 1.9788 0 206 209
-3.1945 17.8106 1.9846 0 206 209
-3.1945 17.8106 1.9904 0 206 209
-3.1945 17.8106 1.9963 0 206 209
-3.1945 17.8106 2.0021 0 206 209
-3.1945 17.8106 2.0080 0 206 209
-3.1945 17.8106 2.0138 0 206 209
-3.1945 17.8106 2.0196 0 206 209
-3.1945 17.8106 2.0255 0 206 209
-3.1945 17.8106 2.0313 0 206 209
-3.1945 17.8106 2.0371 0 206 209
-3.1945 17.8106 2.0430 0 206 209
-3.1945 17.8106 2.0488 0 206 209
-3.1945 17.8106 2.0547 0 206 209
-3.1945 17.8106 2.0605 0 206 209
-3.1945 17.8106 2.0663 0 206 209
-3.1945 17.8106 2.0722 0 206 209
-3.1945 17.8106 2.0780 0 206 209
-3.1945 17.8106 2.0839 0 206 209
-3.1945 17.8106 2.0897 0 206 209
-3.1945 17.8106 2.0955 0 206 209
-3.1945 17.8106 2.1014 0 206 209
-3.1945 17.8106 2.1072 0 206 209
-3.1945 17.8106 2.1130 0 206 209
-3.1945 17.8106 2.1189 0 206 209
-3.1945 17.8106 2.1247 0 206 209
-3.1945 17.8106 2.1306 0 206 209
-3.1945 17.8106 2.1364 0 206 209
-3.1945 17.8106 2.1422 0 206 209
-3.1945 17.8106 2.1481 0 206 209
-3.1945 17.8106 2.1539 0 206 209
-3.1945 17.8106 2.1597 0 206 209
-3.1945 17.8106 2.1656 0 206 209
-3.1945 17.8106 2.1714 0 206 209
-3.1945 17.8106 2.1773 0 206 209
-3.1945 17.8106 2.1831 0 206 209
-3.1945 17.8106 2.1889 0 206 209
-3.1945 17.8106 2.1948 0 206 209
-3.1945 17.8106 2.2006 0 206 209
-3.1945 17.8106 2.2064 0 206 209
-3.1945 17.8106 2.2123 0 206 209
-3.1945 17.8106 2.2181 0 206 209
-3.1945 17.8106 2.2240 0 206 209
-3.1945 17.8106 2.2298 0 206 209
-3.1945 17.8106 2.2356 0 206 209
-3.1945 17.8106 2.2415 0 206 209
-3.1945 17.8106 2.2473 0 206 209
-3.1945 17.8106 2.2532 0 206 209
-3.1945 17.8106 2.2590 0 206 209
-3.1945 17.8106 2.2648 0 206 209
-3.1945 17.8106 2.2707 0 206 209
-3.1945 17.8106 2.2765 0 206 209
-3.1945 17.8106 2.2823 0 206 209
-3.1945 17.8106 2.2882 0 206 209
-3.1945 17.8106 2.2940 0 206 209
-3.1945 17.8106 2.2999 0 206 209
-3.1945 17.8106 2.3057 0 206 209
-3.1945 17.8106 2.3115 0 206 209
-3.1945 17.8106 2.3174 0 206 209
-3.1945 17.8106 2.3232 0 206 209
-3.1945 17.8106 2.3290 0 206 209
-3.1945 17.8106 2.3349 0 206 209
-3.1945 17.8106 2.3407 0 206 209
-3.1945 17.8106 2.3466 0 206 209
-3.1945 17.8106 2.3524 0 206 209
-3.1945 17.8106 2.3582 0 206 209
-3.1945 17.8106 2.3641 0 206 209
24.1926 21.6078 0.3115 107 203 119
24.1930 21.6255 0.3115 107 203 119
24.1933 21.6432 0.3115 107 203 119
24.1937 21.6609 0.3115 107 203 119
24.1940 21.6786 0.3115 107 203 119
24.1943 21.6963 0.3115 107 203 119
24.1947 21.7140 0.3115 107 203 119
24.1950 21.7317 0.3115 107 203 119
24.1954 21.7494 0.3115 107 203 119
24.1957 21.7671 0.3115 107 203 119
24.1961 21.7848 0.3115 107 203 119
24.1964 21.8025 0.3115 107 203 119
24.1968 21.8202 0.3115 107 203 119
24.1971 21.8379 0.3115 107 203 119
24.1974 21.8556 0.3115 107 203 119
24.1978 21.8734 0.3115 107 203 119
24.1981 21.8911 0.3115 107 203 119
24.1985 21.9088 0.3115 107 203 119
24.1988 21.9265 0.3115 107 203 119
24.1992 21.9442 0.3115 107 203 119
24.1995 21.9619 0.3115 107 203 119
24.1999 21.9796 0.3115 107 203 119
24.2002 21.9973 0.3115 107 203 119
24.2006 22.0150 0.3115 107 203 119
24.2009 22.0327 0.3115 107 203 119
24.2012 22.0504 0.3115 107 203 119
24.2016 22.0681 0.3115 107 203 119
24.2019 22.0858 0.3115 107 203 119
24.2023 22.1035 0.3115 107 203 119
24.2026 22.1212 0.3115 107 203 119
24.2030 22.1389 0.3115 107 203 119
24.2033 22.1566 0.3115 107 203 119
24.2037 22.1743 0.3115 107 203 119
24.2040 22.1920 0.3115 107 203 119
24.2043 22.2097 0.3115 107 203 119
24.2047 22.2274 0.3115 107 203 119
24.2050 22.2451 0.3115 107 203 119
24.2054 22.2628 0.3115 107 203 119
24.2057 22.2806 0.3115 107 203 119
24.2061 22.2983 0.3115 107 203 119
24.2064 22.3160 0.3115 107 203 119
24.2068 22.3337 0.3115 107 203 119
24.2071 22.3514 0.3115 107 203 119
24.2075 22.3691 0.3115 107 203 119
24.2078 22.3868 0.3115 107 203 119
24.2081 22.4045 0.3115 107 203 119
24.2085 22.4222 0.3115 107 203 119
24.2088 22.4399 0.3115 107 203 119
24.2092 22.4576 0.3115 107 203 119
24.2095 22.4753 0.3115 107 203 119
24.2099 22.4930 0.3115 107 203 119
24.2102 22.5107 0.3115 107 203 119
24.2106 22.5284 0.3115 107 203 119
24.2109 22.5461 0.3115 107 203 119
24.2113 22.5638 0.3115 107 203 119
24.2116 22.5815 0.3115 107 203 119
24.2119 22.5992 0.3115 107 203 119
24.2123 22.6169 0.3115 107 203 119
24.2126 22.6346 0.3115 107 203 119
24.2130 22.6523 0.3115 107 203 119
24.2133 22.6700 0.3115 107 203 119
24.2137 22.6877 0.3115 107 203 119
24.2140 22.7055 0.3115 107 203 119
24.2144 22.7232 0.3115 107 203 119
24.2147 22.7409 0.3115 107 203 119
24.2150 22.7586 0.3115 107 203 119
24.2154 22.7763 0.3115 107 203 119
24.2157 22.7940 0.3115 107 203 119
24.2161 22.8117 0.3115 107 203 119
24.2164 22.8294 0.3115 107 203 119
24.2168 22.8471 0.3115 107 203 119
24.2171 22.8648 0.3115 107 203 119
24.2175 22.8825 0.3115 107 203 119
24.2178 22.9002 0.3115 107 203 119
24.2182 22.9179 0.3115 107 203 119
24.2185 22.9356 0.3115 107 203 119
24.2188 22.9533 0.3115 107 203 119
24.2192 22.9710 0.3115 107 203 119
24.2195 22.9887 0.3115 107 203 119
24.2199 23.0064 0.3115 107 203 119
24.2202 23.0241 0.3115 107 203 119
24.2206 23.0418 0.3115 107 203 119
24.2209 23.0595 0.3115 107 203 119
24.2213 23.0772 0.3115 107 203 119
24.2216 23.0949 0.3115 107 203 119
24.2220 23.1127 0.3115 107 203 119
24.2223 23.1304 0.3115 107 203 119
24.2226 23.1481 0.3115 107 203 119
24.2230 23.1658 0.3115 107 203 119
24.2233 23.1835 0.3115 107 203 119
24.2237 23.2012 0.3115 107 203 119
24.2240 23.2189 0.3115 107 203 119
24.2244 23.2366 0.3115 107 203 119
24.2247 23.2543 0.3115 107 203 119
24.2251 23.2720 0.3115 107 203 119
24.2254 23.2897 0.3115 107 203 119
24.2257 23.3074 0.3115 107 203 119
24.2261 23.3251 0.3115 107 203 119
24.2264 23.3428 0.3115 107 203 119
24.2268 23.3605 0.3115 107 203 119
24.2271 23.3782 0.3115 107 203 119
24.2275 23.3959 0.3115 107 203 119
24.2278 23.4136 0.3115 107 203 119
24.2282 23.4313 0.3115 107 203 119
24.2285 23.4490 0.3115 107 203 119
24.2289 23.4667 0.3115 107 203 119
24.2292 23.4844 0.3115 107 203 119
24.2295 23.5021 0.3115 107 203 119
24.2299 23.5199 0.3115 107 203 119
24.2302 23.5376 0.3115 107 203 119
24.2306 23.5553 0.3115 107 203 119
24.2309 23.5730 0.3115 107 203 119
24.2313 23.5907 0.3115 107 203 119
24.2316 23.6084 0.3115 107 203 119
24.2320 23.6261 0.3115 107 203 119
24.2323 23.6438 0.3115 107 203 119
24.2327 23.6615 0.3115 107 203 119
24.2330 23.6792 0.3115 107 203 119
24.2333 23.6969 0.3115 107 203 119
24.2337 23.7146 0.3115 107 203 119
24.2340 23.7323 0.3115 107 203 119
24.2344 23.7500 0.3115 107 203 119
24.2347 23.7677 0.3115 107 203 119
24.2351 23.7854 0.3115 107 203 119
24.2354 23.8031 0.3115 107 203 119
24.2358 23.8208 0.3115 107 203 119
24.2361 23.8385 0.3115 107 203 119
24.2364 23.8562 0.3115 107 203 119
24.2368 23.8739 0.3115 107 203 119
24.2371 23.8916 0.3115 107 203 119
24.2375 23.9093 0.3115 107 203 119
24.2378 23.9271 0.3115 107 203 119
24.2382 23.9448 0.3115 107 203 119
24.2385 23.9625 0.3115 107 203 119
24.2389 23.9802 0.3115 107 203 119
24.2392 23.9979 0.3115 107 203 119
24.2396 24.0156 0.3115 107 203 119
24.2399 24.0333 0.3115 107 203 119
24.2402 24.0510 0.3115 107 203 119
24.2406 24.0687 0.3115 107 203 119
24.2409 24.0864 0.3115 107 203 119
24.2413 24.1041 0.3115 107 203 119
24.2416 24.1218 0.3115 107 203 119
24.2420 24.1395 0.3115 107 203 119
24.2423 24.1572 0.3115 107 203 119
24.2427 24.1749 0.3115 107 203 119
24.2430 24.1926 0.3115 107 203 119
24.2433 24.2103 0.3115 107 203 119
24.2437 24.2280 0.3115 107 203 119
24.2440 24.2457 0.3115 107 203 119
24.2444 24.2634 0.3115 107 203 119
24.2447 24.2811 0.3115 107 203 119
24.2451 24.2988 0.3115 107 203 119
24.2454 24.3165 0.3115 107 203 119
24.2458 24.3343 0.3115 107 203 119
24.2461 24.3520 0.3115 107 203 119
24.2465 24.3697 0.3115 107 203 119
24.2468 24.3874 0.3115 107 203 119
24.2471 24.4051 0.3115 107 203 119
24.2475 24.4228 0.3115 107 203 119
24.2478 24.4405 0.3115 107 203 119
24.2482 24.4582 0.3115 107 203 119
24.2485 24.4759 0.3115 107 203 119
24.2489 24.4936 0.3115 107 203 119
24.2492 24.5113 0.3115 107 203 119
24.2496 24.5290 0.3115 107 203 119
24.2499 24.5467 0.3115 107 203 119
24.2503 24.5644 0.3115 107 203 119
24.2506 24.5821 0.3115 107 203 119
24.2509 24.5998 0.3115 107 203 119
24.2513 24.6175 0.3115 107 203 119
24.2516 24.6352 0.3115 107 203 119
24.2520 24.6529 0.3115 107 203 119
24.2523 24.6706 0.3115 107 203 119
24.2527 24.6883 0.3115 107 203 119
24.2530 24.7060 0.3115 107 203 119
24.2534 24.7237 0.3115 107 203 119
24.2537 24.7415 0.3115 107 203 119
24.2540 24.7592 0.3115 107 203 119
24.2544 24.7769 0.3115 107 203 119
24.2547 24.7946 0.3115 107 203 119
24.2551 24.8123 0.3115 107 203 119
24.2554 24.8300 0.3115 107 203 119
24.2558 24.8477 0.3115 107 203 119
24.2561 24.8654 0.3115 107 203 119
24.2565 24.8831 0.3115 107 203 119
24.2568 24.9008 0.3115 107 203 119
24.2572 24.9185 0.3115 107 203 119
24.2575 24.9362 0.3115 107 203 119
24.2578 24.9539 0.3115 107 203 119
24.2582 24.9716 0.3115 107 203 119
24.2585 24.9893 0.3115 107 203 119
24.2589 25.0070 0.3115 107 203 119
24.2592 25.0247 0.3115 107 203 119
24.2596 25.0424 0.3115 107 203 119
24.2599 25.0601 0.3115 107 203 119
24.2603 25.0778 0.3115 107 203 119
24.2606 25.0955 0.3115 107 203 119
24.2610 25.1132 0.3115 107 203 119
24.2613 25.1309 0.3115 107 203 119
24.2613 25.1309 0.3115 107 203 119
24.2513 25.1311 0.3115 107 203 119
24.2413 25.1313 0.3115 107 203 119
24.2313 25.1315 0.3115 107 203 119
24.2213 25.1317 0.3115 107 203 119
24.2113 25.1319 0.3115 107 203 119
24.2013 25.1321 0.3115 107 203 119
24.1913 25.1323 0.3115 107 203 119
24.1813 25.1325 0.3115 107 203 119
24.1713 25.1327 0.3115 107 203 119
24.1613 25.1329 0.3115 107 203 119
24.1512 25.1331 0.3115 107 203 119
24.1412 25.1333 0.3115 107 203 119
24.1312 25.1335 0.3115 107 203 119
24.1212 25.1337 0.3115 107 203 119
24.1112 25.1339 0.3115 107 203 119
24.1012 25.1341 0.3115 107 203 119
24.0912 25.1343 0.3115 107 203 119
24.0812 25.1345 0.3115 107 203 119
24.0712 25.1347 0.3115 107 203 119
24.0612 25.1348 0.3115 107 203 119
24.0512 25.1350 0.3115 107 203 119
24.0412 25.1352 0.3115 107 203 119
24.0312 25.1354 0.3115 107 203 119
24.0212 25.1356 0.3115 107 203 119
24.0112 25.1358 0.3115 107 203 119
24.0012 25.1360 0.3115 107 203 119
23.9912 25.1362 0.3115 107 203 119
23.9812 25.1364 0.3115 107 203 119
23.9712 25.1366 0.3115 107 203 119
23.9612 25.1368 0.3115 107 203 119
23.9512 25.1370 0.3115 107 203 119
23.9412 25.1372 0.3115 107 203 119
23.9312 25.1374 0.3115 107 203 119
23.9211 25.1376 0.3115 107 203 119
23.9111 25.1378 0.3115 107 203 119
23.9011 25.1380 0.3115 107 203 119
23.8911 25.1382 0.3115 107 203 119
23.8811 25.1384 0.3115 107 203 119
23.8711 25.1386 0.3115 107 203 119
23.8611 25.1387 0.3115 107 203 119
23.8511 25.1389 0.3115 107 203 119
23.8411 25.1391 0.3115 107 203 119
23.8311 25.1393 0.3115 107 203 119
23.8211 25.1395 0.3115 107 203 119
23.8111 25.1397 0.3115 107 203 119
23.8011 25.1399 0.3115 107 203 119
23.7911 25.1401 0.3115 107 203 119
23.7811 25.1403 0.3115 107 203 119
23.7711 25.1405 0.3115 107 203 119
23.7611 25.1407 0.3115 107 203 119
23.7511 25.1409 0.3115 107 203 119
23.7411 25.1411 0.3115 107 203 119
23.7311 25.1413 0.3115 107 203 119
23.7211 25.1415 0.3115 107 203 119
23.7111 25.1417 0.3115 107 203 119
23.7010 25.1419 0.3115 107 203 119
23.6910 25.1421 0.3115 107 203 119
23.6810 25.1423 0.3115 107 203 119
23.6710 25.1425 0.3115 107 203 119
23.6610 25.1426 0.3115 107 203 119
23.6510 25.1428 0.3115 107 203 119
23.6410 25.1430 0.3115 107 203 119
23.6310 25.1432 0.3115 107 203 119
23.6210 25.1434 0.3115 107 203 119
23.6110 25.1436 0.3115 107 203 119
23.6010 25.1438 0.3115 107 203 119
23.5910 25.1440 0.3115 107 203 119
23.5810 25.1442 0.3115 107 203 119
23.5710 25.1444 0.3115 107 203 119
23.5610 25.1446 0.3115 107 203 119
23.5510 25.1448 0.3115 107 203 119
23.5410 25.1450 0.3115 107 203 119
23.5310 25.1452 0.3115 107 203 119
23.5210 25.1454 0.3115 107 203 119
23.5110 25.1456 0.3115 107 203 119
23.5010 25.1458 0.3115 107 203 119
23.4910 25.1460 0.3115 107 203 119
23.4810 25.1462 0.3115 107 203 119
23.4709 25.1464 0.3115 107 203 119
23.4609 25.1465 0.3115 107 203 119
23.4509 25.1467 0.3115 107 203 119
23.4409 25.1469 0.3115 107 203 119
23.4309 25.1471 0.3115 107 203 119
23.4209 25.1473 0.3115 107 203 119
23.4109 25.1475 0.3115 107 203 119
23.4009 25.1477 0.3115 107 203 119
23.3909 25.1479 0.3115 107 203 119
23.3809 25.1481 0.3115 107 203 119
23.3709 25.1483 0.3115 107 203 119
23.3609 25.1485 0.3115 107 203 119
23.3509 25.1487 0.3115 107 203 119
23.3409 25.1489 0.3115 107 203 119
23.3309 25.1491 0.3115 107 203 119
23.3209 25.1493 0.3115 107 203 119
23.3109 25.1495 0.3115 107 203 119
23.3009 25.1497 0.3115 107 203 119
23.2909 25.1499 0.3115 107 203 119
23.2809 25.1501 0.3115 107 203 119
23.2709 25.1503 0.3115 107 203 119
23.2609 25.1504 0.3115 107 203 119
23.2509 25.1506 0.3115 107 203 119
23.2408 25.1508 0.3115 107 203 119
23.2308 25.1510 0.3115 107 203 119
23.2208 25.1512 0.3115 107 203 119
23.2108 25.1514 0.3115 107 203 119
23.2008 25.1516 0.3115 107 203 119
23.1908 25.1518 0.3115 107 203 119
23.1808 25.1520 0.3115 107 203 119
23.1708 25.1522 0.3115 107 203 119
23.1608 25.1524 0.3115 107 203 119
23.1508 25.1526 0.3115 107 203 119
23.1408 25.1528 0.3115 107 203 119
23.1308 25.1530 0.3115 107 203 119
23.1208 25.1532 0.3115 107 203 119
23.1108 25.1534 0.3115 107 203 119
23.1008 25.1536 0.3115 107 203 119
23.0908 25.1538 0.3115 107 203 119
23.0808 25.1540 0.3115 107 203 119
23.0708 25.1542 0.3115 107 203 119
23.0608 25.1544 0.3115 107 203 119
23.0508 25.1545 0.3115 107 203 119
23.0408 25.1547 0.3115 107 203 119
23.0308 25.1549 0.3115 107 203 119
23.0208 25.1551 0.3115 107 203 119
23.0107 25.1553 0.3115 107 203 119
23.0007 25.1555 0.3115 107 203 119
22.9907 25.1557 0.3115 107 203 119
22.9807 25.1559 0.3115 107 203 119
22.9707 25.1561 0.3115 107 203 119
22.9607 25.1563 0.3115 107 203 119
22.9507 25.1565 0.3115 107 203 119
22.9407 25.1567 0.3115 107 203 119
22.9307 25.1569 0.3115 107 203 119
22.9207 25.1571 0.3115 107 203 119
22.9107 25.1573 0.3115 107 203 119
22.9007 25.1575 0.3115 107 203 119
22.8907 25.1577 0.3115 107 203 119
22.8807 25.1579 0.3115 107 203 119
22.8707 25.1581 0.3115 107 203 119
22.8607 25.1583 0.3115 107 203 119
22.8507 25.1584 0.3115 107 203 119
22.8407 25.1586 0.3115 107 203 119
22.8307 25.1588 0.3115 107 203 119
22.8207 25.1590 0.3115 107 203 119
22.8107 25.1592 0.3115 107 203 119
22.8007 25.1594 0.3115 107 203 119
22.7907 25.1596 0.3115 107 203 119
22.7806 25.1598 0.3115 107 203 119
22.7706 25.1600 0.3115 107 203 119
22.7606 25.1602 0.3115 107 203 119
22.7506 25.1604 0.3115 107 203 119
22.7406 25.1606 0.3115 107 203 119
22.7306 25.1608 0.3115 107 203 119
22.7206 25.1610 0.3115 107 203 119
22.7106 25.1612 0.3115 107 203 119
22.7006 25.1614 0.3115 107 203 119
22.6906 25.1616 0.3115 107 203 119
22.6806 25.1618 0.3115 107 203 119
22.6706 25.1620 0.3115 107 203 119
22.6606 25.1622 0.3115 107 203 119
22.6506 25.1623 0.3115 107 203 119
22.6406 25.1625 0.3115 107 203 119
22.6306 25.1627 0.3115 107 203 119
22.6206 25.1629 0.3115 107 203 119
22.6106 25.1631 0.3115 107 203 119
22.6006 25.1633 0.3115 107 203 119
22.5906 25.1635 0.3115 107 203 119
22.5806 25.1637 0.3115 107 203 119
22.5706 25.1639 0.3115 107 203 119
22.5606 25.1641 0.3115 107 203 119
22.5505 25.1643 0.3115 107 203 119
22.5405 25.1645 0.3115 107 203 119
22.5305 25.1647 0.3115 107 203 119
22.5205 25.1649 0.3115 107 203 119
22.5105 25.1651 0.3115 107 203 119
22.5005 25.1653 0.3115 107 203 119
22.4905 25.1655 0.3115 107 203 119
22.4805 25.1657 0.3115 107 203 119
22.4705 25.1659 0.3115 107 203 119
22.4605 25.1661 0.3115 107 203 119
22.4505 25.1662 0.3115 107 203 119
22.4405 25.1664 0.3115 107 203 119
22.4305 25.1666 0.3115 107 203 119
22.4205 25.1668 0.3115 107 203 119
22.4105 25.1670 0.3115 107 203 119
22.4005 25.1672 0.3115 107 203 119
22.3905 25.1674 0.3115 107 203 119
22.3805 25.1676 0.3115 107 203 119
22.3705 25.1678 0.3115 107 203 119
22.3605 25.1680 0.3115 107 203 119
22.3505 25.1682 0.3115 107 203 119
22.3405 25.1684 0.3115 107 203 119
22.3305 25.1686 0.3115 107 203 119
22.3204 25.1688 0.3115 107 203 119
22.3104 25.1690 0.3115 107 203 119
22.3004 25.1692 0.3115 107 203 119
22.2904 25.1694 0.3115 107 203 119
22.2804 25.1696 0.3115 107 203 119
22.2704 25.1698 0.3115 107 203 119
22.2704 25.1698 0.3115 107 203 119
22.2701 25.1521 0.3115 107 203 119
22.2697 25.1343 0.3115 107 203 119
22.2694 25.1166 0.3115 107 203 119
22.2690 25.0989 0.3115 107 203 119
22.2687 25.0812 0.3115 107 203 119
22.2684 25.0635 0.3115 107 203 119
22.2680 25.0458 0.3115 107 203 119
22.2677 25.0281 0.3115 107 203 119
22.2673 25.0104 0.3115 107 203 119
22.2670 24.9927 0.3115 107 203 119
22.2666 24.9750 0.3115 107 203 119
22.2663 24.9573 0.3115 107 203 119
22.2659 24.9396 0.3115 107 203 119
22.2656 24.9219 0.3115 107 203 119
22.2652 24.9042 0.3115 107 203 119
22.2649 24.8865 0.3115 107 203 119
22.2646 24.8688 0.3115 107 203 119
22.2642 24.8511 0.3115 107 203 119
22.2639 24.8334 0.3115 107 203 119
22.2635 24.8157 0.3115 107 203 119
22.2632 24.7980 0.3115 107 203 119
22.2628 24.7803 0.3115 107 203 119
22.2625 24.7626 0.3115 107 203 119
22.2621 24.7449 0.3115 107 203 119
22.2618 24.7271 0.3115 107 203 119
22.2614 24.7094 0.3115 107 203 119
22.2611 24.6917 0.3115 107 203 119
22.2608 24.6740 0.3115 107 203 119
22.2604 24.6563 0.3115 107 203 119
22.2601 24.6386 0.3115 107 203 119
22.2597 24.6209 0.3115 107 203 119
22.2594 24.6032 0.3115 107 203 119
22.2590 24.5855 0.3115 107 203 119
22.2587 24.5678 0.3115 107 203 119
22.2583 24.5501 0.3115 107 203 119
22.2580 24.5324 0.3115 107 203 119
22.2577 24.5147 0.3115 107 203 119
22.2573 24.4970 0.3115 107 203 119
22.2570 24.4793 0.3115 107 203 119
22.2566 24.4616 0.3115 107 203 119
22.2563 24.4439 0.3115 107 203 119
22.2559 24.4262 0.3115 107 203 119
22.2556 24.4085 0.3115 107 203 119
22.2552 24.3908 0.3115 107 203 119
22.2549 24.3731 0.3115 107 203 119
22.2545 24.3554 0.3115 107 203 119
22.2542 24.3377 0.3115 107 203 119
22.2539 24.3200 0.3115 107 203 119
22.2535 24.3022 0.3115 107 203 119
22.2532 24.2845 0.3115 107 203 119
22.2528 24.2668 0.3115 107 203 119
22.2525 24.2491 0.3115 107 203 119
22.2521 24.2314 0.3115 107 203 119
22.2518 24.2137 0.3115 107 203 119
22.2514 24.1960 0.3115 107 203 119
22.2511 24.1783 0.3115 107 203 119
22.2508 24.1606 0.3115 107 203 119
22.2504 24.1429 0.3115 107 203 119
22.2501 24.1252 0.3115 107 203 119
22.2497 24.1075 0.3115 107 203 119
22.2494 24.0898 0.3115 107 203 119
22.2490 24.0721 0.3115 107 203 119
22.2487 24.0544 0.3115 107 203 119
22.2483 24.0367 0.3115 107 203 119
22.2480 24.0190 0.3115 107 203 119
22.2476 24.0013 0.3115 107 203 119
22.2473 23.9836 0.3115 107 203 119
22.2470 23.9659 0.3115 107 203 119
22.2466 23.9482 0.3115 107 203 119
22.2463 23.9305 0.3115 107 203 119
22.2459 23.9128 0.3115 107 203 119
22.2456 23.8950 0.3115 107 203 119
22.2452 23.8773 0.3115 107 203 119
22.2449 23.8596 0.3115 107 203 119
22.2445 23.8419 0.3115 107 203 119
22.2442 23.8242 0.3115 107 203 119
22.2438 23.8065 0.3115 107 203 119
22.2435 23.7888 0.3115 107 203 119
22.2432 23.7711 0.3115 107 203 119
22.2428 23.7534 0.3115 107 203 119
22.2425 23.7357 0.3115 107 203 119
22.2421 23.7180 0.3115 107 203 119
22.2418 23.7003 0.3115 107 203 119
22.2414 23.6826 0.3115 107 203 119
22.2411 23.6649 0.3115 107 203 119
22.2407 23.6472 0.3115 107 203 119
22.2404 23.6295 0.3115 107 203 119
22.2401 23.6118 0.3115 107 203 119
22.2397 23.5941 0.3115 107 203 119
22.2394 23.5764 0.3115 107 203 119
22.2390 23.5587 0.3115 107 203 119
22.2387 23.5410 0.3115 107 203 119
22.2383 23.5233 0.3115 107 203 119
22.2380 23.5056 0.3115 107 203 119
22.2376 23.4878 0.3115 107 203 119
22.2373 23.4701 0.3115 107 203 119
22.2369 23.4524 0.3115 107 203 119
22.2366 23.4347 0.3115 107 203 119
22.2363 23.4170 0.3115 107 203 119
22.2359 23.3993 0.3115 107 203 119
22.2356 23.3816 0.3115 107 203 119
22.2352 23.3639 0.3115 107 203 119
22.2349 23.3462 0.3115 107 203 119
22.2345 23.3285 0.3115 107 203 119
22.2342 23.3108 0.3115 107 203 119
22.2338 23.2931 0.3115 107 203 119
22.2335 23.2754 0.3115 107 203 119
22.2332 23.2577 0.3115 107 203 119
22.2328 23.2400 0.3115 107 203 119
22.2325 23.2223 0.3115 107 203 119
22.2321 23.2046 0.3115 107 203 119
22.2318 23.1869 0.3115 107 203 119
22.2314 23.1692 0.3115 107 203 119
22.2311 23.1515 0.3115 107 203 119
22.2307 23.1338 0.3115 107 203 119
22.2304 23.1161 0.3115 107 203 119
22.2300 23.0984 0.3115 107 203 119
22.2297 23.0806 0.3115 107 203 119
22.2294 23.0629 0.3115 107 203 119
22.2290 23.0452 0.3115 107 203 119
22.2287 23.0275 0.3115 107 203 119
22.2283 23.0098 0.3115 107 203 119
22.2280 22.9921 0.3115 107 203 119
22.2276 22.9744 0.3115 107 203 119
22.2273 22.9567 0.3115 107 203 119
22.2269 22.9390 0.3115 107 203 119
22.2266 22.9213 0.3115 107 203 119
22.2262 22.9036 0.3115 107 203 119
22.2259 22.8859 0.3115 107 203 119
22.2256 22.8682 0.3115 107 203 119
22.2252 22.8505 0.3115 107 203 119
22.2249 22.8328 0.3115 107 203 119
22.2245 22.8151 0.3115 107 203 119
22.2242 22.7974 0.3115 107 203 119
22.2238 22.7797 0.3115 107 203 119
22.2235 22.7620 0.3115 107 203 119
22.2231 22.7443 0.3115 107 203 119
22.2228 22.7266 0.3115 107 203 119
22.2225 22.7089 0.3115 107 203 119
22.2221 22.6912 0.3115 107 203 119
22.2218 22.6734 0.3115 107 203 119
22.2214 22.6557 0.3115 107 203 119
22.2211 22.6380 0.3115 107 203 119
22.2207 22.6203 0.3115 107 203 119
22.2204 22.6026 0.3115 107 203 119
22.2200 22.5849 0.3115 107 203 119
22.2197 22.5672 0.3115 107 203 119
22.2193 22.5495 0.3115 107 203 119
22.2190 22.5318 0.3115 107 203 119
22.2187 22.5141 0.3115 107 203 119
22.2183 22.4964 0.3115 107 203 119
22.2180 22.4787 0.3115 107 203 119
22.2176 22.4610 0.3115 107 203 119
22.2173 22.4433 0.3115 107 203 119
22.2169 22.4256 0.3115 107 203 119
22.2166 22.4079 0.3115 107 203 119
22.2162 22.3902 0.3115 107 203 119
22.2159 22.3725 0.3115 107 203 119
22.2155 22.3548 0.3115 107 203 119
22.2152 22.3371 0.3115 107 203 119
22.2149 22.3194 0.3115 107 203 119
22.2145 22.3017 0.3115 107 203 119
22.2142 22.2840 0.3115 107 203 119
22.2138 22.2662 0.3115 107 203 119
22.2135 22.2485 0.3115 107 203 119
22.2131 22.2308 0.3115 107 203 119
22.2128 22.2131 0.3115 107 203 119
22.2124 22.1954 0.3115 107 203 119
22.2121 22.1777 0.3115 107 203 119
22.2118 22.1600 0.3115 107 203 119
22.2114 22.1423 0.3115 107 203 119
22.2111 22.1246 0.3115 107 203 119
22.2107 22.1069 0.3115 107 203 119
22.2104 22.0892 0.3115 107 203 119
22.2100 22.0715 0.3115 107 203 119
22.2097 22.0538 0.3115 107 203 119
22.2093 22.0361 0.3115 107 203 119
22.2090 22.0184 0.3115 107 203 119
22.2086 22.0007 0.3115 107 203 119
22.2083 21.9830 0.3115 107 203 119
22.2080 21.9653 0.3115 107 203 119
22.2076 21.9476 0.3115 107 203 119
22.2073 21.9299 0.3115 107 203 119
22.2069 21.9122 0.3115 107 203 119
22.2066 21.8945 0.3115 107 203 119
22.2062 21.8768 0.3115 107 203 119
22.2059 21.8590 0.3115 107 203 119
22.2055 21.8413 0.3115 107 203 119
22.2052 21.8236 0.3115 107 203 119
22.2048 21.8059 0.3115 107 203 119
22.2045 21.7882 0.3115 107 203 119
22.2042 21.7705 0.3115 107 203 119
22.2038 21.7528 0.3115 107 203 119
22.2035 21.7351 0.3115 107 203 119
22.2031 21.7174 0.3115 107 203 119
22.2028 21.6997 0.3115 107 203 119
22.2024 21.6820 0.3115 107 203 119
22.2021 21.6643 0.3115 107 203 119
22.2017 21.6466 0.3115 107 203 119
22.2017 21.6466 0.3115 107 203 119
22.2117 21.6464 0.3115 107 203 119
22.2218 21.6462 0.3115 107 203 119
22.2318 21.6460 0.3115 107 203 119
22.2418 21.6458 0.3115 107 203 119
22.2518 21.6456 0.3115 107 203 119
22.2618 21.6454 0.3115 107 203 119
22.2718 21.6452 0.3115 107 203 119
22.2818 21.6450 0.3115 107 203 119
22.2918 21.6448 0.3115 107 203 119
22.3018 21.6446 0.3115 107 203 119
22.3118 21.6444 0.3115 107 203 119
22.3218 21.6443 0.3115 107 203 119
22.3318 21.6441 0.3115 107 203 119
22.3418 21.6439 0.3115 107 203 119
22.3518 21.6437 0.3115 107 203 119
22.3618 21.6435 0.3115 107 203 119
22.3718 21.6433 0.3115 107 203 119
22.3818 21.6431 0.3115 107 203 119
22.3918 21.6429 0.3115 107 203 119
22.4018 21.6427 0.3115 107 203 119
22.4118 21.6425 0.3115 107 203 119
22.4218 21.6423 0.3115 107 203 119
22.4318 21.6421 0.3115 107 203 119
22.4418 21.6419 0.3115 107 203 119
22.4519 21.6417 0.3115 107 203 119
22.4619 21.6415 0.3115 107 203 119
22.4719 21.6413 0.3115 107 203 119
22.4819 21.6411 0.3115 107 203 119
22.4919 21.6409 0.3115 107 203 119
22.5019 21.6407 0.3115 107 203 119
22.5119 21.6405 0.3115 107 203 119
22.5219 21.6404 0.3115 107 203 119
22.5319 21.6402 0.3115 107 203 119
22.5419 21.6400 0.3115 107 203 119
22.5519 21.6398 0.3115 107 203 119
22.5619 21.6396 0.3115 107 203 119
22.5719 21.6394 0.3115 107 203 119
22.5819 21.6392 0.3115 107 203 119
22.5919 21.6390 0.3115 107 203 119
22.6019 21.6388 0.3115 107 203 119
22.6119 21.6386 0.3115 107 203 119
22.6219 21.6384 0.3115 107 203 119
22.6319 21.6382 0.3115 107 203 119
22.6419 21.6380 0.3115 107 203 119
22.6519 21.6378 0.3115 107 203 119
22.6619 21.6376 0.3115 107 203 119
22.6719 21.6374 0.3115 107 203 119
22.6820 21.6372 0.3115 107 203 119
22.6920 21.6370 0.3115 107 203 119
22.7020 21.6368 0.3115 107 203 119
22.7120 21.6366 0.3115 107 203 119
22.7220 21.6365 0.3115 107 203 119
22.7320 21.6363 0.3115 107 203 119
22.7420 21.6361 0.3115 107 203 119
22.7520 21.6359 0.3115 107 203 119
22.7620 21.6357 0.3115 107 203 119
22.7720 21.6355 0.3115 107 203 119
22.7820 21.6353 0.3115 107 203 119
22.7920 21.6351 0.3115 107 203 119
22.8020 21.6349 0.3115 107 203 119
22.8120 21.6347 0.3115 107 203 119
22.8220 21.6345 0.3115 107 203 119
22.8320 21.6343 0.3115 107 203 119
22.8420 21.6341 0.3115 107 203 119
22.8520 21.6339 0.3115 107 203 119
22.8620 21.6337 0.3115 107 203 119
22.8720 21.6335 0.3115 107 203 119
22.8820 21.6333 0.3115 107 203 119
22.8920 21.6331 0.3115 107 203 119
22.9021 21.6329 0.3115 107 203 119
22.9121 21.6327 0.3115 107 203 119
22.9221 21.6326 0.3115 107 203 119
22.9321 21.6324 0.3115 107 203 119
22.9421 21.6322 0.3115 107 203 119
22.9521 21.6320 0.3115 107 203 119
22.9621 21.6318 0.3115 107 203 119
22.9721 21.6316 0.3115 107 203 119
22.9821 21.6314 0.3115 107 203 119
22.9921 21.6312 0.3115 107 203 119
23.0021 21.6310 0.3115 107 203 119
23.0121 21.6308 0.3115 107 203 119
23.0221 21.6306 0.3115 107 203 119
23.0321 21.6304 0.3115 107 203 119
23.0421 21.6302 0.3115 107 203 119
23.0521 21.6300 0.3115 107 203 119
23.0621 21.6298 0.3115 107 203 119
23.0721 21.6296 0.3115 107 203 119
23.0821 21.6294 0.3115 107 203 119
23.0921 21.6292 0.3115 107 203 119
23.1021 21.6290 0.3115 107 203 119
23.1121 21.6288 0.3115 107 203 119
23.1221 21.6287 0.3115 107 203 119
23.1322 21.6285 0.3115 107 203 119
23.1422 21.6283 0.3115 107 203 119
23.1522 21.6281 0.3115 107 203 119
23.1622 21.6279 0.3115 107 203 119
23.1722 21.6277 0.3115 107 203 119
23.1822 21.6275 0.3115 107 203 119
23.1922 21.6273 0.3115 107 203 119
23.2022 21.6271 0.3115 107 203 119
23.2122 21.6269 0.3115 107 203 119
23.2222 21.6267 0.3115 107 203 119
23.2322 21.6265 0.3115 107 203 119
23.2422 21.6263 0.3115 107 203 119
23.2522 21.6261 0.3115 107 203 119
23.2622 21.6259 0.3115 107 203 119
23.2722 21.6257 0.3115 107 203 119
23.2822 21.6255 0.3115 107 203 119
23.2922 21.6253 0.3115 107 203 119
23.3022 21.6251 0.3115 107 203 119
23.3122 21.6249 0.3115 107 203 119
23.3222 21.6248 0.3115 107 203 119
23.3322 21.6246 0.3115 107 203 119
23.3422 21.6244 0.3115 107 203 119
23.3522 21.6242 0.3115 107 203 119
23.3623 21.6240 0.3115 107 203 119
23.3723 21.6238 0.3115 107 203 119
23.3823 21.6236 0.3115 107 203 119
23.3923 21.6234 0.3115 107 203 119
23.4023 21.6232 0.3115 107 203 119
23.4123 21.6230 0.3115 107 203 119
23.4223 21.6228 0.3115 107 203 119
23.4323 21.6226 0.3115 107 203 119
23.4423 21.6224 0.3115 107 203 119
23.4523 21.6222 0.3115 107 203 119
23.4623 21.6220 0.3115 107 203 119
23.4723 21.6218 0.3115 107 203 119
23.4823 21.6216 0.3115 107 203 119
23.4923 21.6214 0.3115 107 203 119
23.5023 21.6212 0.3115 107 203 119
23.5123 21.6210 0.3115 107 203 119
23.5223 21.6209 0.3115 107 203 119
23.5323 21.6207 0.3115 107 203 119
23.5423 21.6205 0.3115 107 203 119
23.5523 21.6203 0.3115 107 203 119
23.5623 21.6201 0.3115 107 203 119
23.5723 21.6199 0.3115 107 203 119
23.5823 21.6197 0.3115 107 203 119
23.5924 21.6195 0.3115 107 203 119
23.6024 21.6193 0.3115 107 203 119
23.6124 21.6191 0.3115 107 203 119
23.6224 21.6189 0.3115 107 203 119
23.6324 21.6187 0.3115 107 203 119
23.6424 21.6185 0.3115 107 203 119
23.6524 21.6183 0.3115 107 203 119
23.6624 21.6181 0.3115 107 203 119
23.6724 21.6179 0.3115 107 203 119
23.6824 21.6177 0.3115 107 203 119
23.6924 21.6175 0.3115 107 203 119
23.7024 21.6173 0.3115 107 203 119
23.7124 21.6171 0.3115 107 203 119
23.7224 21.6170 0.3115 107 203 119
23.7324 21.6168 0.3115 107 203 119
23.7424 21.6166 0.3115 107 203 119
23.7524 21.6164 0.3115 107 203 119
23.7624 21.6162 0.3115 107 203 119
23.7724 21.6160 0.3115 107 203 119
23.7824 21.6158 0.3115 107 203 119
23.7924 21.6156 0.3115 107 203 119
23.8024 21.6154 0.3115 107 203 119
23.8124 21.6152 0.3115 107 203 119
23.8225 21.6150 0.3115 107 203 119
23.8325 21.6148 0.3115 107 203 119
23.8425 21.6146 0.3115 107 203 119
23.8525 21.6144 0.3115 107 203 119
23.8625 21.6142 0.3115 107 203 119
23.8725 21.6140 0.3115 107 203 119
23.8825 21.6138 0.3115 107 203 119
23.8925 21.6136 0.3115 107 203 119
23.9025 21.6134 0.3115 107 203 119
23.9125 21.6132 0.3115 107 203 119
23.9225 21.6131 0.3115 107 203 119
23.9325 21.6129 0.3115 107 203 119
23.9425 21.6127 0.3115 107 203 119
23.9525 21.6125 0.3115 107 203 119
23.9625 21.6123 0.3115 107 203 119
23.9725 21.6121 0.3115 107 203 119
23.9825 21.6119 0.3115 107 203 119
23.9925 21.6117 0.3115 107 203 119
24.0025 21.6115 0.3115 107 203 119
24.0125 21.6113 0.3115 107 203 119
24.0225 21.6111 0.3115 107 203 119
24.0325 21.6109 0.3115 107 203 119
24.0425 21.6107 0.3115 107 203 119
24.0526 21.6105 0.3115 107 203 119
24.0626 21.6103 0.3115 107 203 119
24.0726 21.6101 0.3115 107 203 119
24.0826 21.6099 0.3115 107 203 119
24.0926 21.6097 0.3115 107 203 119
24.1026 21.6095 0.3115 107 203 119
24.1126 21.6093 0.3115 107 203 119
24.1226 21.6091 0.3115 107 203 119
24.1326 21.6090 0.3115 107 203 119
24.1426 21.6088 0.3115 107 203 119
24.1526 21.6086 0.3115 107 203 119
24.1626 21.6084 0.3115 107 203 119
24.1726 21.6082 0.3115 107 203 119
24.1826 21.6080 0.3115 107 203 119
24.1926 21.6078 0.3115 107 203 119
24.1926 21.6078 1.6489 107 203 119
24.1930 21.6255 1.6489 107 203 119
24.1933 21.6432 1.6489 107 203 119
24.1937 21.6609 1.6489 107 203 119
24.1940 21.6786 1.6489 107 203 119
24.1943 21.6963 1.6489 107 203 119
24.1947 21.7140 1.6489 107 203 119
24.1950 21.7317 1.6489 107 203 119
24.1954 21.7494 1.6489 107 203 119
24.1957 21.7671 1.6489 107 203 119
24.1961 21.7848 1.6489 107 203 119
24.1964 21.8025 1.6489 107 203 119
24.1968 21.8202 1.6489 107 203 119
24.1971 21.8379 1.6489 107 203 119
24.1974 21.8556 1.6489 107 203 119
24.1978 21.8734 1.6489 107 203 119
24.1981 21.8911 1.6489 107 203 119
24.1985 21.9088 1.6489 107 203 119
24.1988 21.9265 1.6489 107 203 119
24.1992 21.9442 1.6489 107 203 119
24.1995 21.9619 1.6489 107 203 119
24.1999 21.9796 1.6489 107 203 119
24.2002 21.9973 1.6489 107 203 119
24.2006 22.0150 1.6489 107 203 119
24.2009 22.0327 1.6489 107 203 119
24.2012 22.0504 1.6489 107 203 119
24.2016 22.0681 1.6489 107 203 119
24.2019 22.0858 1.6489 107 203 119
24.2023 22.1035 1.6489 107 203 119
24.2026 22.1212 1.6489 107 203 119
24.2030 22.1389 1.6489 107 203 119
24.2033 22.1566 1.6489 107 203 119
24.2037 22.1743 1.6489 107 203 119
24.2040 22.1920 1.6489 107 203 119
24.2043 22.2097 1.6489 107 203 119
24.2047 22.2274 1.6489 107 203 119
24.2050 22.2451 1.6489 107 203 119
24.2054 22.2628 1.6489 107 203 119
24.2057 22.2806 1.6489 107 203 119
24.2061 22.2983 1.6489 107 203 119
24.2064 22.3160 1.6489 107 203 119
24.2068 22.3337 1.6489 107 203 119
24.2071 22.3514 1.6489 107 203 119
24.2075 22.3691 1.6489 107 203 119
24.2078 22.3868 1.6489 107 203 119
24.2081 22.4045 1.6489 107 203 119
24.2085 22.4222 1.6489 107 203 119
24.2088 22.4399 1.6489 107 203 119
24.2092 22.4576 1.6489 107 203 119
24.2095 22.4753 1.6489 107 203 119
24.2099 22.4930 1.6489 107 203 119
24.2102 22.5107 1.6489 107 203 119
24.2106 22.5284 1.6489 107 203 119
24.2109 22.5461 1.6489 107 203 119
24.2113 22.5638 1.6489 107 203 119
24.2116 22.5815 1.6489 107 203 119
24.2119 22.5992 1.6489 107 203 119
24.2123 22.6169 1.6489 107 203 119
24.2126 22.6346 1.6489 107 203 119
24.2130 22.6523 1.6489 107 203 119
24.2133 22.6700 1.6489 107 203 119
24.2137 22.6877 1.6489 107 203 119
24.2140 22.7055 1.6489 107 203 119
24.2144 22.7232 1.6489 107 203 119
24.2147 22.7409 1.6489 107 203 119
24.2150 22.7586 1.6489 107 203 119
24.2154 22.7763 1.6489 107 203 119
24.2157 22.7940 1.6489 107 203 119
24.2161 22.8117 1.6489 107 203 119
24.2164 22.8294 1.6489 107 203 119
24.2168 22.8471 1.6489 107 203 119
24.2171 22.8648 1.6489 107 203 119
24.2175 22.8825 1.6489 107 203 119
24.2178 22.9002 1.6489 107 203 119
24.2182 22.9179 1.6489 107 203 119
24.2185 22.9356 1.6489 107 203 119
24.2188 22.9533 1.6489 107 203 119
24.2192 22.9710 1.6489 107 203 119
24.2195 22.9887 1.6489 107 203 119
24.2199 23.0064 1.6489 107 203 119
24.2202 23.0241 1.6489 107 203 119
24.2206 23.0418 1.6489 107 203 119
24.2209 23.0595 1.6489 107 203 119
24.2213 23.0772 1.6489 107 203 119
24.2216 23.0949 1.6489 107 203 119
24.2220 23.1127 1.6489 107 203 119
24.2223 23.1304 1.6489 107 203 119
24.2226 23.1481 1.6489 107 203 119
24.2230 23.1658 1.6489 107 203 119
24.2233 23.1835 1.6489 107 203 119
24.2237 23.2012 1.6489 107 203 119
24.2240 23.2189 1.6489 107 203 119
24.2244 23.2366 1.6489 107 203 119
24.2247 23.2543 1.6489 107 203 119
24.2251 23.2720 1.6489 107 203 119
24.2254 23.2897 1.6489 107 203 119
24.2257 23.3074 1.6489 107 203 119
24.2261 23.3251 1.6489 107 203 119
24.2264 23.3428 1.6489 107 203 119
24.2268 23.3605 1.6489 107 203 119
24.2271 23.3782 1.6489 107 203 119
24.2275 23.3959 1.6489 107 203 119
24.2278 23.4136 1.6489 107 203 119
24.2282 23.4313 1.6489 107 203 119
24.2285 23.4490 1.6489 107 203 119
24.2289 23.4667 1.6489 107 203 119
24.2292 23.4844 1.6489 107 203 119
24.2295 23.5021 1.6489 107 203 119
24.2299 23.5199 1.6489 107 203 119
24.2302 23.5376 1.6489 107 203 119
24.2306 23.5553 1.6489 107 203 119
24.2309 23.5730 1.6489 107 203 119
24.2313 23.5907 1.6489 107 203 119
24.2316 23.6084 1.6489 107 203 119
24.2320 23.6261 1.6489 107 203 119
24.2323 23.6438 1.6489 107 203 119
24.2327 23.6615 1.6489 107 203 119
24.2330 23.6792 1.6489 107 203 119
24.2333 23.6969 1.6489 107 203 119
24.2337 23.7146 1.6489 107 203 119
24.2340 23.7323 1.6489 107 203 119
24.2344 23.7500 1.6489 107 203 119
24.2347 23.7677 1.6489 107 203 119
24.2351 23.7854 1.6489 107 203 119
24.2354 23.8031 1.6489 107 203 119
24.2358 23.8208 1.6489 107 203 119
24.2361 23.8385 1.6489 107 203 119
24.2364 23.8562 1.6489 107 203 119
24.2368 23.8739 1.6489 107 203 119
24.2371 23.8916 1.6489 107 203 119
24.2375 23.9093 1.6489 107 203 119
24.2378 23.9271 1.6489 107 203 119
24.2382 23.9448 1.6489 107 203 119
24.2385 23.9625 1.6489 107 203 119
24.2389 23.9802 1.6489 107 203 119
24.2392 23.9979 1.6489 107 203 119
24.2396 24.0156 1.6489 107 203 119
24.2399 24.0333 1.6489 107 203 119
24.2402 24.0510 1.6489 107 203 119
24.2406 24.0687 1.6489 107 203 119
24.2409 24.0864 1.6489 107 203 119
24.2413 24.1041 1.6489 107 203 119
24.2416 24.1218 1.6489 107 203 119
24.2420 24.1395 1.6489 107 203 119
24.2423 24.1572 1.6489 107 203 119
24.2427 24.1749 1.6489 107 203 119
24.2430 24.1926 1.6489 107 203 119
24.2433 24.2103 1.6489 107 203 119
24.2437 24.2280 1.6489 107 203 119
24.2440 24.2457 1.6489 107 203 119
24.2444 24.2634 1.6489 107 203 119
24.2447 24.2811 1.6489 107 203 119
24.2451 24.2988 1.6489 107 203 119
24.2454 24.3165 1.6489 107 203 119
24.2458 24.3343 1.6489 107 203 119
24.2461 24.3520 1.6489 107 203 119
24.2465 24.3697 1.6489 107 203 119
24.2468 24.3874 1.6489 107 203 119
24.2471 24.4051 1.6489 107 203 119
24.2475 24.4228 1.6489 107 203 119
24.2478 24.4405 1.6489 107 203 119
24.2482 24.4582 1.6489 107 203 119
24.2485 24.4759 1.6489 107 203 119
24.2489 24.4936 1.6489 107 203 119
24.2492 24.5113 1.6489 107 203 119
24.2496 24.5290 1.6489 107 203 119
24.2499 24.5467 1.6489 107 203 119
24.2503 24.5644 1.6489 107 203 119
24.2506 24.5821 1.6489 107 203 119
24.2509 24.5998 1.6489 107 203 119
24.2513 24.6175 1.6489 107 203 119
24.2516 24.6352 1.6489 107 203 119
24.2520 24.6529 1.6489 107 203 119
24.2523 24.6706 1.6489 107 203 119
24.2527 24.6883 1.6489 107 203 119
24.2530 24.7060 1.6489 107 203 119
24.2534 24.7237 1.6489 107 203 119
24.2537 24.7415 1.6489 107 203 119
24.2540 24.7592 1.6489 107 203 119
24.2544 24.7769 1.6489 107 203 119
24.2547 24.7946 1.6489 107 203 119
24.2551 24.8123 1.6489 107 203 119
24.2554 24.8300 1.6489 107 203 119
24.2558 24.8477 1.6489 107 203 119
24.2561 24.8654 1.6489 107 203 119
24.2565 24.8831 1.6489 107 203 119
24.2568 24.9008 1.6489 107 203 119
24.2572 24.9185 1.6489 107 203 119
24.2575 24.9362 1.6489 107 203 119
24.2578 24.9539 1.6489 107 203 119
24.2582 24.9716 1.6489 107 203 119
24.2585 24.9893 1.6489 107 203 119
24.2589 25.0070 1.6489 107 203 119
24.2592 25.0247 1.6489 107 203 119
24.2596 25.0424 1.6489 107 203 119
24.2599 25.0601 1.6489 107 203 119
24.2603 25.0778 1.6489 107 203 119
24.2606 25.0955 1.6489 107 203 119
24.2610 25.1132 1.6489 107 203 119
24.2613 25.1309 1.6489 107 203 119
24.2613 25.1309 1.6489 107 203 119
24.2513 25.1311 1.6489 107 203 119
24.2413 25.1313 1.6489 107 203 119
24.2313 25.1315 1.6489 107 203 119
24.2213 25.1317 1.6489 107 203 119
24.2113 25.1319 1.6489 107 203 119
24.2013 25.1321 1.6489 107 203 119
24.1913 25.1323 1.6489 107 203 119
24.1813 25.1325 1.6489 107 203 119
24.1713 25.1327 1.6489 107 203 119
24.1613 25.1329 1.6489 107 203 119
24.1512 25.1331 1.6489 107 203 119
24.1412 25.1333 1.6489 107 203 119
24.1312 25.1335 1.6489 107 203 119
24.1212 25.1337 1.6489 107 203 119
24.1112 25.1339 1.6489 107 203 119
24.1012 25.1341 1.6489 107 203 119
24.0912 25.1343 1.6489 107 203 119
24.0812 25.1345 1.6489 107 203 119
24.0712 25.1347 1.6489 107 203 119
24.0612 25.1348 1.6489 107 203 119
24.0512 25.1350 1.6489 107 203 119
24.0412 25.1352 1.6489 107 203 119
24.0312 25.1354 1.6489 107 203 119
24.0212 25.1356 1.6489 107 203 119
24.0112 25.1358 1.6489 107 203 119
24.0012 25.1360 1.6489 107 203 119
23.9912 25.1362 1.6489 107 203 119
23.9812 25.1364 1.6489 107 203 119
23.9712 25.1366 1.6489 107 203 119
23.9612 25.1368 1.6489 107 203 119
23.9512 25.1370 1.6489 107 203 119
23.9412 25.1372 1.6489 107 203 119
23.9312 25.1374 1.6489 107 203 119
23.9211 25.1376 1.6489 107 203 119
23.9111 25.1378 1.6489 107 203 119
23.9011 25.1380 1.6489 107 203 119
23.8911 25.1382 1.6489 107 203 119
23.8811 25.1384 1.6489 107 203 119
23.8711 25.1386 1.6489 107 203 119
23.8611 25.1387 1.6489 107 203 119
23.8511 25.1389 1.6489 107 203 119
23.8411 25.1391 1.6489 107 203 119
23.8311 25.1393 1.6489 107 203 119
23.8211 25.1395 1.6489 107 203 119
23.8111 25.1397 1.6489 107 203 119
23.8011 25.1399 1.6489 107 203 119
23.7911 25.1401 1.6489 107 203 119
23.7811 25.1403 1.6489 107 203 119
23.7711 25.1405 1.6489 107 203 119
23.7611 25.1407 1.6489 107 203 119
23.7511 25.1409 1.6489 107 203 119
23.7411 25.1411 1.6489 107 203 119
23.7311 25.1413 1.6489 107 203 119
23.7211 25.1415 1.6489 107 203 119
23.7111 25.1417 1.6489 107 203 119
23.7010 25.1419 1.6489 107 203 119
23.6910 25.1421 1.6489 107 203 119
23.6810 25.1423 1.6489 107 203 119
23.6710 25.1425 1.6489 107 203 119
23.6610 25.1426 1.6489 107 203 119
23.6510 25.1428 1.6489 107 203 119
23.6410 25.1430 1.6489 107 203 119
23.6310 25.1432 1.6489 107 203 119
23.6210 25.1434 1.6489 107 203 119
23.6110 25.1436 1.6489 107 203 119
23.6010 25.1438 1.6489 107 203 119
23.5910 25.1440 1.6489 107 203 119
23.5810 25.1442 1.6489 107 203 119
23.5710 25.1444 1.6489 107 203 119
23.5610 25.1446 1.6489 107 203 119
23.5510 25.1448 1.6489 107 203 119
23.5410 25.1450 1.6489 107 203 119
23.5310 25.1452 1.6489 107 203 119
23.5210 25.1454 1.6489 107 203 119
23.5110 25.1456 1.6489 107 203 119
23.5010 25.1458 1.6489 107 203 119
23.4910 25.1460 1.6489 107 203 119
23.4810 25.1462 1.6489 107 203 119
23.4709 25.1464 1.6489 107 203 119
23.4609 25.1465 1.6489 107 203 119
23.4509 25.1467 1.6489 107 203 119
23.4409 25.1469 1.6489 107 203 119
23.4309 25.1471 1.6489 107 203 119
23.4209 25.1473 1.6489 107 203 119
23.4109 25.1475 1.6489 107 203 119
23.4009 25.1477 1.6489 107 203 119
23.3909 25.1479 1.6489 107 203 119
23.3809 25.1481 1.6489 107 203 119
23.3709 25.1483 1.6489 107 203 119
23.3609 25.1485 1.6489 107 203 119
23.3509 25.1487 1.6489 107 203 119
23.3409 25.1489 1.6489 107 203 119
23.3309 25.1491 1.6489 107 203 119
23.3209 25.1493 1.6489 107 203 119
23.3109 25.1495 1.6489 107 203 119
23.3009 25.1497 1.6489 107 203 119
23.2909 25.1499 1.6489 107 203 119
23.2809 25.1501 1.6489 107 203 119
23.2709 25.1503 1.6489 107 203 119
23.2609 25.1504 1.6489 107 203 119
23.2509 25.1506 1.6489 107 203 119
23.2408 25.1508 1.6489 107 203 119
23.2308 25.1510 1.6489 107 203 119
23.2208 25.1512 1.6489 107 203 119
23.2108 25.1514 1.6489 107 203 119
23.2008 25.1516 1.6489 107 203 119
23.1908 25.1518 1.6489 107 203 119
23.1808 25.1520 1.6489 107 203 119
23.1708 25.1522 1.6489 107 203 119
23.1608 25.1524 1.6489 107 203 119
23.1508 25.1526 1.6489 107 203 119
23.1408 25.1528 1.6489 107 203 119
23.1308 25.1530 1.6489 107 203 119
23.1208 25.1532 1.6489 107 203 119
23.1108 25.1534 1.6489 107 203 119
23.1008 25.1536 1.6489 107 203 119
23.0908 25.1538 1.6489 107 203 119
23.0808 25.1540 1.6489 107 203 119
